# .PCD v0.7 - Point Cloud Data file format
VERSION 0.7
FIELDS x y z intensity
SIZE 4 4 4 4
TYPE F F F F
COUNT 1 1 1 1
WIDTH 1140
HEIGHT 1
VIEWPOINT 0 0 0 1 0 0 0
POINTS 1140
DATA ascii
-61.365498 -1.4781317 41.004688 3.0549817
-61.154194 -1.4695688 41.044868 2.0919943
-61.095665 -1.4664237 41.073967 0.060485411
-60.707401 -1.4736565 41.087845 1.0867252
-60.548512 -1.410677 41.062389 4.0917587
-60.312885 -1.4718907 41.002491 -0.018745439
-59.823685 -1.4410304 41.044456 2.0799952
-58.944996 -1.4660573 41.058796 3.0672643
-81.430153 -1.3467643 41.043743 1.0694826
-80.991158 -1.3351045 41.070435 4.0929918
-80.850677 -1.3259714 41.051399 4.055479
-80.764465 -1.3306152 41.006767 2.0899975
-79.857307 -1.332822 41.093819 1.0520047
-79.734756 -1.3343997 41.000576 0.052478649
-79.621864 -1.3220912 41.028828 5.0507307
-79.225677 -1.3694241 41.024734 2.0490069
-78.722916 -1.3504376 41.057621 1.045012
-78.389671 -1.3381371 41.005512 0.041728768
-78.232826 -1.3169582 41.071789 3.076499
-77.9916 -1.3260598 41.073662 0.03599279
-77.85392 -1.3239317 41.071709 0.034000423
-77.5242 -1.3093114 41.066216 2.5691435
-77.347298 -1.2699684 41.077763 3.5759892
-77.247421 -1.2502245 41.064213 4.0365047
-76.219284 -1.1991607 41.020512 5.027266
-65.614044 -1.5116168 41.171299 1.1202483
-65.342918 -1.5041497 41.153481 2.0367353
-64.64167 -1.5090128 41.113815 0.034727577
-64.187927 -1.5029138 41.183449 1.0409768
-65.89061 -1.4486012 41.124046 3.0305126
-65.659355 -1.4912655 41.154446 2.0332389
-65.527023 -1.4959921 41.148682 2.0347362
-65.465897 -1.490809 41.173717 3.5766137
-65.327332 -1.4754281 41.122631 5.0450034
-64.812744 -1.4562532 41.149345 5.1055059
-63.959839 -1.4973843 41.111832 2.0425012
-63.123371 -1.4866304 41.136986 0.044749349
-62.944775 -1.4827418 41.120213 1.0460236
-62.336632 -1.4739985 41.197258 3.0497475
-62.045437 -1.4880201 41.11747 0.054995414
-61.695938 -1.4774679 41.148766 2.0559952
-61.490078 -1.4753132 41.150688 3.0939763
-61.353992 -1.4793128 41.167027 3.0564756
-61.259071 -1.4059165 41.188587 5.0950003
-60.963699 -1.4690002 41.142513 1.5752556
-60.64727 -1.4686432 41.11441 1.5726134
-60.472813 -1.478981 41.131332 0.068766259
-60.353813 -1.4634269 41.171364 3.0600207
-60.250481 -1.4425867 41.149307 3.079987
-60.177612 -1.4697948 41.13884 1.0794842
-60.007603 -1.468485 41.103043 1.571113
-59.05806 -1.4366528 41.176132 3.4109268
-58.979755 -1.4400208 41.149128 5.0587311
-81.522713 -1.3545055 41.144459 1.0677412
-81.435234 -1.3438196 41.116482 1.0822268
-81.348831 -1.3481672 41.10807 0.57624519
-81.245865 -1.3429604 41.131474 2.0719831
-81.097038 -1.3400514 41.123951 1.0865232
-80.810272 -1.336205 41.176571 4.0945086
-80.657654 -1.3535891 41.195667 0.058018446
-80.565613 -1.3275452 41.114719 2.0924935
-80.329849 -1.3507288 41.180077 6.0517497
-80.060303 -1.3316162 41.142879 2.052484
-79.774017 -1.3931354 41.107906 3.0510111
-79.655891 -1.3380679 41.165382 0.049757916
-79.523041 -1.323854 41.188221 5.0497503
-79.106323 -1.3658984 41.131836 2.0475001
-78.61264 -1.3416698 41.15469 0.52712554
-78.465622 -1.3325995 41.166748 1.1102706
-77.950226 -1.3293653 41.138241 3.1097393
-77.889465 -1.3109884 41.139381 0.52612889
-77.674805 -1.3144392 41.1805 1.0317284
-77.225166 -1.2599357 41.175476 4.0681429
-76.483047 -1.1918496 41.161732 5.1207519
-65.776314 -1.5185335 41.292686 1.1174947
-65.548409 -1.5234433 41.263874 0.12022635
-65.123238 -1.5095425 41.221752 2.0392325
-65.000031 -1.511613 41.287254 2.0407336
-64.288551 -1.5098097 41.285763 0.040753748
-66.09256 -1.4451256 41.24968 6.0462279
-64.957275 -1.4847649 41.229027 2.610754
-64.811569 -1.4952456 41.246239 0.014245351
-64.649483 -1.4911239 41.269238 3.1077571
-64.347832 -1.4841068 41.255108 2.1079776
-64.078941 -1.4962254 41.203171 5.0475197
-63.93005 -1.4951111 41.291527 4.0469837
-63.815823 -1.4983224 41.275303 2.0449901
-63.416916 -1.4981077 41.283249 3.0472646
-62.997982 -1.480325 41.275269 4.0487328
-62.086716 -1.4798509 41.230045 1.0945008
-61.861526 -1.4831593 41.273857 0.57438397
-61.696453 -1.4780338 41.279255 2.0574918
-61.161205 -1.4666271 41.25177 0.063264206
-60.982101 -1.4696064 41.299988 1.0629992
-60.808357 -1.4723551 41.251541 2.087254
-60.785847 -1.4697846 41.22448 5.0525117
-60.665314 -1.471983 41.297215 2.0855043
-60.555168 -1.481828 41.215759 0.070513837
-60.367714 -1.4458063 41.234261 2.5795057
-59.635563 -1.4831047 41.293755 4.0600033
-59.239319 -1.4540615 41.289371 3.0752687
-58.994858 -1.414068 41.204029 4.0685201
-82.194855 -1.3869438 41.29266 1.0730063
-81.603271 -1.360256 41.279675 1.0657459
-81.326424 -1.3499379 41.254883 -0.016494758
-81.153526 -1.3457608 41.271168 -0.013999231
-81.035934 -1.3433259 41.297203 -0.012253064
-80.788177 -1.3280376 41.277954 4.0537343
-80.334023 -1.3341547 41.289501 3.052259
-79.998657 -1.3318889 41.261715 2.050981
-79.663681 -1.3910089 41.243656 3.049741
-79.579536 -1.3365206 41.255932 0.047998469
-78.294029 -1.3393867 41.230827 1.0395077
-77.608482 -1.3016005 41.249142 2.1174984
-83.075699 -1.2541479 41.263 5.0762711
-78.535782 -1.2953937 41.22242 4.1057405
-77.556915 -1.2906098 41.256001 2.0305002
-77.453728 -1.2766118 41.261505 3.1167667
-77.301712 -1.250828 41.217136 3.0275164
-76.276695 -1.1776851 41.227303 6.0352454
-76.120224 -1.1514646 41.275196 6.0274868
-66.137032 -1.5184296 41.331669 5.0449905
-66.094902 -1.50117 41.352554 3.0382414
-65.482368 -1.5157193 41.300625 1.0357615
-65.338989 -1.5140086 41.362186 1.0377554
-64.453438 -1.5077055 41.351387 3.0450082
-64.007538 -1.5052147 41.350906 1.0442638
-82.589134 -1.4109038 41.306942 2.0799811
-82.449631 -1.4149097 41.398094 1.0702652
-80.593636 -1.4251481 41.33284 4.0522332
-65.797234 -1.4749315 41.319973 4.1092491
-65.519188 -1.4959172 41.312679 3.1099782
-65.190979 -1.4899639 41.301449 2.1112478
-64.867859 -1.4933748 41.362278 5.0472541
-62.947445 -1.4874979 41.332836 2.5492432
-62.020069 -1.4845641 41.307915 0.57548505
-61.842041 -1.4652288 41.30489 4.0517383
-61.74004 -1.4750458 41.333557 3.4118373
-61.659451 -1.4823811 41.355793 0.088269614
-61.568756 -1.4819037 41.388496 0.086772405
-61.252613 -1.4725552 41.333679 1.5781174
-61.101231 -1.4077898 41.362926 5.0934782
-60.831039 -1.4820738 41.362679 2.0664992
-60.524433 -1.482318 41.393936 1.0717375
-60.325115 -1.4698991 41.340488 2.0815103
-59.585388 -1.49343 41.333813 3.065022
-59.444183 -1.462624 41.392574 3.0727592
-59.391449 -1.4490622 41.314484 3.0812666
-59.119926 -1.4159378 41.314667 4.0699754
-81.796883 -1.3561004 41.379704 -0.023493683
-81.626869 -1.3605692 41.354847 1.0647484
-81.459251 -1.3541603 41.312248 1.5782719
-81.267281 -1.3474058 41.302311 3.0575128
-80.959221 -1.3462156 41.352917 2.0564892
-80.776543 -1.3506616 41.335346 1.056269
-80.631805 -1.3541734 41.341061 0.055743046
-80.568428 -1.327456 41.387207 1.0942283
-79.330856 -1.3233722 41.399544 5.0482559
-79.132912 -1.3187313 41.360481 2.1054885
-78.287781 -1.3306634 41.34343 2.1122286
-78.127831 -1.3186051 41.383091 0.023500582
-82.076157 -1.2745763 41.317638 5.0907741
-79.476418 -1.2815436 41.302185 6.0494766
-77.743011 -1.2934098 41.356709 2.1194959
-77.415298 -1.2652524 41.349751 3.0292678
-77.396439 -1.2120204 41.361645 6.1079841
-77.277084 -1.2496445 41.351189 4.1167364
-76.793335 -1.1900007 41.373997 5.1240039
-66.420494 -1.5042049 41.489403 1.1227319
-66.206528 -1.5170815 41.499035 0.025514856
-65.926453 -1.5234854 41.478912 1.1142588
-65.714699 -1.5233257 41.440281 0.11652084
-65.550934 -1.5192021 41.452019 0.035484392
-65.454002 -1.5193074 41.483871 0.036981966
-65.163879 -1.5157344 41.450172 1.0402536
-65.092537 -1.5052872 41.402786 4.0449996
-64.412178 -1.5311025 41.466591 6.0497689
-63.901756 -1.5013182 41.450699 5.0490174
-59.856152 -1.5068653 41.469265 2.0767326
-66.621185 -1.4517077 41.420593 3.1210124
-65.012581 -1.4894128 41.407742 1.1107681
-64.875244 -1.4921722 41.425747 0.011238321
-64.372986 -1.4961689 41.496349 2.1050239
-62.599564 -1.4763627 41.499104 2.051981
-62.267994 -1.4775826 41.404484 3.0517619
-62.067554 -1.484489 41.454956 1.0762466
-61.726456 -1.4797251 41.47438 1.0884953
-61.316036 -1.481902 41.440044 0.082773603
-61.25901 -1.4684491 41.428047 0.066251986
-61.168404 -1.4814272 41.440022 1.5852528
-60.954079 -1.4841069 41.418003 0.077233061
-60.789654 -1.4709663 41.450317 2.0637739
-60.667751 -1.4865246 41.492619 1.0739799
-59.710114 -1.4909676 41.466423 3.0665145
-59.515381 -1.4246542 41.455971 4.0739784
-59.383522 -1.4194649 41.493317 4.0727744
-82.662468 -1.3302168 41.439632 4.0870147
-81.654266 -1.3519754 41.469292 2.5598755
-81.246399 -1.34395 41.456909 3.0927649
-80.924332 -1.3473719 41.496265 2.0547559
-80.706085 -1.328371 41.462585 4.0522342
-80.571632 -1.351992 41.489956 0.053257693
-79.915855 -1.3357291 41.418236 2.0490074
-79.637321 -1.3368889 41.426971 1.0467697
-79.489075 -1.3864312 41.409088 3.0479815
-79.121895 -1.3175671 41.444405 2.1064849
-78.842918 -1.3131586 41.412598 3.106766
-78.561768 -1.3501291 41.424091 2.0414865
-78.478104 -1.3405757 41.404701 1.1134875
-78.309219 -1.3180813 41.485809 0.026746174
-78.25988 -1.3332821 41.44635 2.0384862
-78.026176 -1.3220835 41.460323 2.0907443
-78.52095 -1.293726 41.437305 4.1074862
-77.973915 -1.2710929 41.435966 5.1080122
-77.831573 -1.2959404 41.467072 2.1212463
-77.415428 -1.2627289 41.468388 5.11201
-66.443222 -1.5178677 41.510494 3.1112695
-66.369965 -1.5153245 41.517044 2.0362279
-66.022652 -1.500342 41.58263 4.044229
-65.785233 -1.5254599 41.532566 0.11472911
-65.635345 -1.5154757 41.532578 3.0427253
-65.242218 -1.5200168 41.593563 0.040477138
-64.951302 -1.5079988 41.561626 4.0464945
-64.315796 -1.5079119 41.566643 3.0472577
-64.044189 -1.5124826 41.548988 0.046230912
-63.857826 -1.5066353 41.587822 1.0480024
-66.430092 -1.4709129 41.564205 5.106729
-65.910744 -1.488214 41.513493 4.1075077
-64.934448 -1.4805856 41.528141 4.1055222
-64.618149 -1.4921722 41.513664 3.1052506
-63.786839 -1.4970117 41.580528 4.0492444
-63.671741 -1.4999932 41.519218 2.0482316
-62.928753 -1.4901985 41.551708 0.051729467
-62.793949 -1.482741 41.522919 1.0517545
-62.463577 -1.4839286 41.533657 3.0950065
-62.170856 -1.4650304 41.540455 5.0519848
-62.074032 -1.4930568 41.554611 0.06172758
-61.826019 -1.465681 41.506805 4.053226
-61.725327 -1.4800301 41.514835 2.0602353
-61.629185 -1.470233 41.516445 4.092751
-61.589283 -1.4789991 41.523598 1.0864953
-61.321259 -1.4809806 41.585052 1.0827502
-61.130878 -1.474905 41.576988 1.0669768
-61.015167 -1.4825027 41.517918 3.0882316
-60.113701 -1.4359732 41.502956 4.0869784
-59.823345 -1.4274731 41.533463 4.0847321
-82.035416 -1.3486464 41.566971 1.0788741
-81.851608 -1.3529723 41.544968 2.0748742
-81.56411 -1.3326528 41.542007 5.0537629
-81.217537 -1.348524 41.533012 3.0552347
-81.087791 -1.3442936 41.555634 3.0944815
-80.712013 -1.3523078 41.548962 1.0532358
-80.65387 -1.3319849 41.510586 -0.0057399245
-80.205566 -1.3364441 41.531284 3.0497398
-79.786339 -1.3369043 41.575005 2.0467465
-79.22435 -1.3601477 41.570503 1.5432595
-79.087555 -1.3380287 41.593147 0.038996436
-78.715004 -1.3384801 41.540699 0.016519934
-78.512291 -1.3418291 41.513809 1.1150209
-78.452095 -1.3248556 41.563686 0.029252181
-77.989006 -1.2961789 41.593819 2.1237509
-77.664352 -1.2836356 41.533569 3.0763953
-77.424622 -1.250146 41.552048 4.1191115
-77.327309 -1.2383661 41.512825 4.0289869
-76.969849 -1.1936654 41.514729 5.0260077
-76.450592 -1.1463907 41.532509 6.1227255
-66.629776 -1.5101745 41.628906 1.1192356
-66.573692 -1.5276881 41.650215 1.034254
-66.424438 -1.5234872 41.648537 0.57900918
-66.215103 -1.5214026 41.694538 2.1102471
-66.009064 -1.5205789 41.664078 1.5760099
-65.841316 -1.5268791 41.630478 0.1129871
-65.212738 -1.5617907 41.66851 5.0484891
-65.133301 -1.5207654 41.676888 0.042477489
-64.920441 -1.5148735 41.676559 1.0445001
-64.627075 -1.5118792 41.694874 2.0467272
-63.182491 -1.5441411 41.643967 6.0512662
-60.279873 -1.5060506 41.634403 2.0712295
-67.272865 -1.4623435 41.624836 3.0254829
-66.898842 -1.4645716 41.615173 3.1169808
-65.549324 -1.4868646 41.64043 4.1059899
-62.928406 -1.4796195 41.601227 4.051259
-62.573986 -1.4787492 41.674503 2.0540197
-62.344139 -1.4826441 41.635452 3.0934837
-62.116417 -1.4954331 41.680573 0.063763686
-61.936928 -1.4895569 41.612385 1.0620015
-61.852615 -1.4754009 41.603828 2.0892675
-61.47459 -1.4763278 41.683395 4.0910001
-61.056892 -1.487452 41.606945 1.079255
-60.306885 -1.4997224 41.657017 3.06376
-60.158348 -1.4777468 41.662136 3.0799909
-59.077728 -1.4098268 41.6119 5.0650043
-81.869072 -1.3570421 41.67691 2.0605054
-81.639725 -1.3518176 41.639122 1.5755059
-81.573463 -1.3396053 41.625652 4.0552597
-81.494423 -1.3572826 41.69125 0.060498465
-80.667923 -1.3535604 41.64949 1.0517471
-80.48056 -1.3585973 41.697876 0.04975535
-79.361694 -1.336051 41.633598 1.0422665
-79.240143 -1.3347113 41.688553 1.0405214
-79.121605 -1.3141425 41.632805 2.1087265
-79.033241 -1.3203256 41.635563 5.0462575
-78.657593 -1.33252 41.627266 0.032508444
-81.8246 -1.2610306 41.630714 5.0932627
-79.095497 -1.2792443 41.634388 6.0475149
-77.794594 -1.2793455 41.664581 3.1225207
-77.562241 -1.2499948 41.690102 4.1209893
-83.237892 -1.1801997 41.646469 6.0732293
-76.852074 -1.1635091 41.69128 6.1174784
-66.786293 -1.5168735 41.779018 1.1162511
-66.638123 -1.5330238 41.796307 0.033730503
-65.862877 -1.5212498 41.758415 2.0424979
-65.452988 -1.5170172 41.711971 3.045023
-64.592133 -1.5015016 41.70853 5.0492635
-63.94854 -1.5137532 41.743591 0.049523588
-60.575111 -1.5032667 41.777992 3.0837505
-60.471951 -1.5075766 41.752537 2.0735176
-80.311691 -1.4256477 41.761951 4.0495162
-67.22393 -1.4718972 41.747787 3.036742
-67.186295 -1.4818627 41.742744 2.0260141
-65.883347 -1.4923197 41.750137 4.0757589
-63.280136 -1.4981055 41.743038 3.0517347
-62.906052 -1.4920666 41.733593 0.054509688
-62.858444 -1.4811345 41.771793 3.3991756
-62.74361 -1.4799038 41.749214 1.7139953
-62.631626 -1.4775372 41.772629 -0.010232346
-62.15403 -1.4823012 41.772568 2.8255522
-61.791561 -1.4705844 41.713779 4.0547714
-61.61937 -1.4773362 41.707363 2.0862327
-61.503086 -1.4766152 41.703979 0.071741618
-61.456581 -1.4796976 41.758224 2.0842373
-61.385632 -1.4907407 41.714172 3.0615156
-61.290527 -1.4782645 41.756802 1.0700234
-60.631287 -1.4692819 41.790359 3.0659878
-83.41922 -1.3713017 41.746979 3.0761399
-82.208313 -1.3576403 41.797211 0.068003558
-82.140572 -1.3465037 41.790798 1.0840107
-81.824921 -1.3517648 41.790394 1.0882286
-81.472717 -1.3494442 41.762417 1.0756214
-80.593163 -1.3579001 41.798462 1.0495101
-80.416298 -1.3617266 41.795746 0.047976356
-79.094688 -1.3354955 41.745468 1.0384775
-78.717285 -1.3289683 41.771961 1.0334835
-78.516228 -1.3222519 41.725243 1.0307308
-78.355392 -1.3343406 41.738365 1.0287321
-77.821976 -1.303257 41.70092 4.1144962
-77.566811 -1.2650462 41.771358 4.031745
-38.878834 -1.222012 41.781063 7.0724964
-67.060104 -1.5240003 41.853073 3.0782497
-66.886749 -1.513796 41.800884 4.1077552
-66.383392 -1.5278177 41.886204 0.037758823
-66.228607 -1.5235291 41.829933 1.5738691
-66.098869 -1.5247056 41.858849 1.0410229
-64.960869 -1.519583 41.892162 0.04652049
-64.742714 -1.5125719 41.893307 4.0492392
-64.564095 -1.5116401 41.818916 2.0482349
-64.19693 -1.5362439 41.838867 6.0507526
-63.91671 -1.5144128 41.852779 0.051250972
-63.75758 -1.5071663 41.859444 3.0516417
-63.57695 -1.5024338 41.811371 2.0517561
-60.91283 -1.5037386 41.87381 2.078244
-67.540413 -1.4196237 41.89106 5.1112728
-66.737244 -1.4729242 41.889336 6.1049829
-66.53653 -1.4847099 41.839031 5.104979
-65.262665 -1.4946389 41.811401 2.1049957
-62.614044 -1.478353 41.89077 4.0937562
-62.48307 -1.4775693 41.836784 -0.012731947
-62.389256 -1.476953 41.862473 -0.014231945
-62.234207 -1.4800071 41.84671 1.5195082
-62.028831 -1.480958 41.884018 1.5349884
-61.757126 -1.4824892 41.815735 1.0196283
-61.43182 -1.4791665 41.862793 1.0722696
-61.017181 -1.4902953 41.896481 2.0690055
-60.752495 -1.4626117 41.806286 3.5831215
-83.231621 -1.3994756 41.802174 2.0722523
-82.437088 -1.3502017 41.858803 1.0728738
-82.239899 -1.3375399 41.867676 5.0743656
-82.154831 -1.3555267 41.830555 3.0589924
-81.845329 -1.3554921 41.877007 2.0582733
-81.64296 -1.3515885 41.851479 1.0743781
-81.506851 -1.3396649 41.802143 4.0537677
-81.421036 -1.3325787 41.833363 5.0520177
-81.085258 -1.348284 41.838333 3.0520031
-80.742378 -1.3503872 41.878632 2.0497673
-80.491096 -1.3346765 41.880672 4.0487604
-79.907097 -1.3387198 41.880325 3.0455179
-79.40004 -1.3342129 41.840103 2.0414979
-79.31144 -1.3196931 41.823837 1.1112399
-78.905739 -1.3463337 41.833408 0.022005731
-78.841454 -1.3142438 41.889019 3.1114979
-78.702065 -1.3145511 41.809429 5.0442729
-60.876709 -1.3317437 41.820305 5.067482
-79.370621 -1.2917387 41.897736 4.1055126
-78.755692 -1.2732058 41.866894 5.1062422
-77.874176 -1.2989203 41.864311 3.1244791
-77.513847 -1.2652537 41.805897 5.1145153
-77.381134 -1.2160776 41.862453 5.1210093
-77.023911 -1.1640445 41.873753 6.1192741
-67.381035 -1.5141329 41.975407 3.1110008
-66.917023 -1.5100822 41.998692 2.0407267
-66.894333 -1.5185921 41.968681 1.1132499
-66.738365 -1.5487744 41.946262 4.0452681
-66.54882 -1.5253601 41.934185 3.106986
-66.477997 -1.5019667 41.950447 3.0437469
-66.195091 -1.5334653 41.963051 0.040756911
-64.153709 -1.5093747 41.987858 3.0512705
-63.667706 -1.5010924 41.91695 4.0517502
-63.564407 -1.5021839 41.962086 2.053494
-63.251553 -1.5002377 41.930782 3.0535233
-62.276936 -1.5040624 41.963737 0.068743028
-62.088795 -1.5006194 41.972675 1.0672258
-83.416916 -1.4064322 41.947533 2.0751295
-82.28257 -1.491287 41.920986 5.0530133
-67.431656 -1.4990697 41.917667 5.1064796
-62.916462 -1.4841107 41.943947 1.0744909
-62.773426 -1.4903842 41.967384 1.0577302
-62.677471 -1.4758259 41.906456 1.0894965
-62.563644 -1.4802343 41.94714 1.5723782
-62.303173 -1.485531 41.987686 5.0939817
-61.812714 -1.4906671 41.958443 2.576262
-61.550236 -1.4797966 41.93055 1.074016
-61.067387 -1.4474723 41.961857 4.5872641
-82.286835 -1.358022 41.939293 0.07374914
-82.105423 -1.3569924 41.910904 0.084479518
-81.987427 -1.3562881 41.917011 0.08626841
-81.795631 -1.3548112 41.958641 0.089245796
-81.439148 -1.345605 41.950966 2.8135109
-80.275795 -1.3634909 41.935207 0.044977125
-79.434372 -1.331633 41.910294 0.11276161
-79.324661 -1.3228222 41.964165 1.1132326
-79.196518 -1.335278 41.931454 2.0390012
-78.997833 -1.349701 41.923367 0.02399583
-78.823051 -1.3311543 41.986099 2.0347614
-78.60154 -1.3292456 41.976059 2.0322611
-78.37989 -1.3627096 41.919201 3.0385203
-77.87886 -1.3101201 41.935997 4.1164837
-82.29364 -1.2855362 41.934746 4.0909858
-67.724075 -1.5214715 42.071014 1.0745072
-67.685143 -1.5369753 42.083683 3.0407476
-67.521873 -1.5132685 42.018612 1.034251
-67.129608 -1.5173508 42.05851 2.1110234
-66.946518 -1.5216358 42.042404 2.6088743
-66.751053 -1.5200403 42.007324 0.11372507
-66.278732 -1.5275515 42.090134 2.1055024
-66.085655 -1.5300043 42.068443 0.042990878
-65.919197 -1.5266734 42.004074 1.0440154
-65.821167 -1.529876 42.099293 1.045764
-65.656364 -1.504169 42.058758 4.0482321
-65.592133 -1.5258956 42.036812 2.046741
-65.244675 -1.5200119 42.007561 3.0482647
-64.898689 -1.5193977 42.010086 0.048483592
-64.722137 -1.5161128 42.011772 1.0495104
-64.371147 -1.5097337 42.097401 5.0512671
-63.884819 -1.5173888 42.029922 0.05398747
-63.744926 -1.5140266 42.038242 0.57376564
-63.551392 -1.5049343 42.090584 2.054986
-62.16861 -1.504281 42.082886 1.0690209
-80.020805 -1.418285 42.006954 4.0475068
-68.233551 -1.4003503 42.010891 4.0254793
-67.771111 -1.479324 42.000122 5.0435009
-62.932152 -1.4983544 42.044724 0.059252121
-62.858898 -1.4860333 42.015484 4.054493
-62.756031 -1.4735562 42.071415 2.0894752
-62.446186 -1.4776609 42.00927 2.5890033
-62.235756 -1.4886048 42.051102 3.0577402
-62.175983 -1.409057 42.014973 6.0949826
-84.065796 -1.3726342 42.094681 3.0745096
-83.608131 -1.3922862 42.073547 2.0782468
-82.53717 -1.3125274 42.098888 3.089273
-82.145882 -1.3592563 42.019505 3.0572598
-81.998047 -1.3368386 42.070972 5.0955024
-81.516655 -1.3524618 42.099625 0.094019637
-80.363358 -1.3481324 42.043411 2.5461273
-79.971184 -1.3152881 42.001919 2.1050076
-79.665276 -1.3401927 42.066654 3.0427268
-79.492233 -1.3317974 42.090321 0.115752
-79.175102 -1.3146013 42.039665 2.1137607
-79.070572 -1.3410459 42.073441 5.1050081
-78.197166 -1.345903 42.054611 3.1187556
-82.145592 -1.2846972 42.009033 4.0924883
-79.366875 -1.2895731 42.083179 4.1070137
-77.011063 -1.1007065 42.06274 7.0345149
-67.830658 -1.5475472 42.180962 1.1155145
-67.710091 -1.5293632 42.156658 5.1049867
-67.686539 -1.5214905 42.151917 0.032228902
-67.529938 -1.5225782 42.160168 0.034480236
-67.444244 -1.5335424 42.154816 3.0762463
-67.152702 -1.5170654 42.182827 2.1095166
-66.250778 -1.5071445 42.169701 3.0464957
-65.502968 -1.5283936 42.171413 2.048486
-64.119133 -1.5106735 42.151424 3.0527647
-63.864223 -1.5157816 42.146538 0.57473457
-63.741913 -1.51276 42.150955 1.0557545
-63.624336 -1.5101603 42.141258 2.0723796
-62.470509 -1.5088525 42.141777 0.072743021
-84.534454 -1.4176344 42.178261 3.0712631
-84.31546 -1.4350424 42.131989 3.0799999
-83.743492 -1.4232554 42.119621 3.0845006
-81.033691 -1.4855483 42.100475 6.0482693
-79.775017 -1.4099171 42.148106 4.0459967
-68.425941 -1.4299772 42.18668 5.1124825
-68.27636 -1.4368756 42.108776 3.1245162
-63.237499 -1.4800521 42.114189 3.0935018
-62.812645 -1.4947599 42.154331 1.0602725
-61.5434 -1.4511924 42.148201 5.0897293
-61.321869 -1.4997196 42.166176 3.0825136
-61.220963 -1.4995677 42.108528 2.0720069
-82.684273 -1.3464379 42.164291 0.074507765
-82.549362 -1.3610363 42.132412 2.5596089
-82.386711 -1.3095077 42.169563 3.0910134
-82.22065 -1.3459638 42.11726 5.0534978
-82.08979 -1.3568757 42.173367 3.0557668
-81.391357 -1.3537078 42.123642 0.053741463
-80.947861 -1.3551934 42.11747 3.0490108
-80.563583 -1.3563771 42.121044 2.0462723
-79.963333 -1.3371491 42.150158 1.0733937
-79.614838 -1.3595557 42.151421 0.034239858
-79.468697 -1.3578733 42.137054 0.032003358
-79.368591 -1.3466325 42.154396 1.5351213
-78.047668 -1.315336 42.153919 4.0357442
-81.998032 -1.28075 42.137489 4.0942554
-77.667694 -1.2328529 42.176567 5.0787659
-68.040787 -1.5424808 42.274696 2.0761309
-67.725479 -1.5546694 42.272774 0.01524344
-67.438225 -1.5171885 42.270592 3.1079972
-67.332993 -1.5164931 42.237053 0.037524711
-67.241707 -1.514937 42.283493 0.039018441
-66.990532 -1.5147276 42.224102 1.0414972
-66.893707 -1.5158943 42.295044 1.0429978
-66.612129 -1.510802 42.262028 2.0450211
-66.579269 -1.537256 42.235638 5.0482702
-65.919006 -1.5346422 42.2365 0.046484742
-65.525612 -1.5092599 42.248131 4.0497384
-64.829048 -1.5173599 42.269119 0.052477885
-64.662842 -1.5110946 42.240147 4.0517292
-64.456093 -1.510547 42.236744 2.052985
-63.889954 -1.5215949 42.262802 0.057523966
-63.756737 -1.5148792 42.2672 1.07512
-63.685326 -1.5110373 42.257065 3.0721264
-63.215603 -1.5089504 42.223072 3.0562639
-62.784485 -1.5104218 42.278744 0.077993453
-62.68977 -1.5109622 42.253399 0.076494634
-62.357895 -1.5053197 42.239269 1.0722718
-61.601025 -1.5002607 42.212433 3.0664878
-68.654022 -1.4610893 42.288559 3.0757439
-68.541115 -1.4001421 42.256302 4.1207376
-62.598419 -1.4949365 42.221714 2.0602539
-62.313446 -1.4789953 42.238968 2.0839789
-61.748524 -1.4878755 42.24905 3.0680089
-61.527161 -1.4895585 42.20488 2.075254
-82.944855 -1.3410627 42.246792 1.070749
-82.862106 -1.3236098 42.280315 2.0860014
-82.748856 -1.3533235 42.257545 1.0665172
-81.210899 -1.3376749 42.253651 5.0494905
-80.128998 -1.3343593 42.239964 4.0449986
-80.010117 -1.3660815 42.26413 1.0395029
-79.860779 -1.3643656 42.298275 1.0375023
-79.671227 -1.3581394 42.298306 1.0350134
-79.544846 -1.343478 42.275146 0.57586211
-79.419731 -1.3235861 42.213898 1.1170229
-79.250153 -1.3508688 42.220268 1.0292392
-79.134537 -1.3573622 42.209015 1.0277486
-78.937119 -1.3370241 42.239906 2.0257311
-78.382942 -1.3488458 42.28389 3.1214972
-61.338089 -1.3653299 42.260193 6.0882349
-64.822968 -1.6063464 42.301018 6.0482454
-68.202263 -1.5212369 42.328564 4.0427337
-68.174614 -1.5547926 42.36198 2.1117454
-67.763817 -1.5526083 42.368618 0.013738473
-67.15921 -1.5117431 42.344364 0.040516619
-66.417824 -1.5555267 42.321026 4.0482607
-66.11097 -1.5111887 42.35675 3.0485048
-65.864494 -1.5353541 42.322815 0.04798197
-65.107185 -1.5231513 42.342213 3.0515063
-64.444328 -1.5113245 42.39283 2.054729
-64.098061 -1.5125855 42.372723 3.0547588
-63.932152 -1.5108019 42.326694 2.0935161
-63.104061 -1.5035824 42.397079 0.065225981
-63.03701 -1.5093305 42.319 0.072859243
-62.943253 -1.5119526 42.310074 0.080487497
-62.520504 -1.5062225 42.331745 1.0747734
-61.902691 -1.530861 42.313812 2.0690119
-84.754768 -1.429013 42.387276 3.0690122
-83.959473 -1.4250591 42.342445 2.0692365
-68.833832 -1.4623609 42.379105 3.0299926
-68.755211 -1.4623208 42.331089 3.1182439
-68.626381 -1.4834878 42.39204 2.1187689
-68.259682 -1.4882514 42.346886 5.1067486
-62.968224 -1.4830636 42.320789 3.0902529
-61.90044 -1.485364 42.371296 4.0869837
-83.03199 -1.3438324 42.355503 1.0687497
-82.91143 -1.3526379 42.379601 0.06947615
-82.851906 -1.3641794 42.348679 4.5932603
-82.645889 -1.3211797 42.322842 2.0887423
-82.52095 -1.3362758 42.359341 3.0729914
-82.358803 -1.361963 42.338047 0.059763599
-82.199501 -1.3026848 42.313934 3.0935097
-81.689583 -1.3520821 42.315105 2.0530035
-81.270996 -1.3577979 42.356434 0.049740255
-80.77504 -1.361475 42.353737 3.0462515
-79.522285 -1.3271036 42.394688 1.1199764
-79.254768 -1.3215712 42.313797 2.1172516
-79.139313 -1.3578866 42.329292 3.035378
-79.07637 -1.302948 42.347794 3.1167259
-78.6166 -1.3036069 42.395714 4.1155114
-78.443497 -1.3425827 42.317734 3.5347414
-69.109352 -1.338486 42.390984 6.1154857
-79.378693 -1.2880472 42.323746 4.1090093
-61.4095 -1.2385547 42.39983 7.0749998
-68.534081 -1.5344168 42.453949 1.033762
-68.420319 -1.5439451 42.416348 2.0728912
-67.951477 -1.5504253 42.441685 1.1117634
-67.763588 -1.5065486 42.462704 4.1060238
-67.682701 -1.5310283 42.415424 5.0469956
-67.418175 -1.5141158 42.445522 3.1062477
-67.211365 -1.5439864 42.441765 3.0457358
-67.005165 -1.5142837 42.449459 0.043262523
-66.705597 -1.5199853 42.476002 1.0462383
-66.490585 -1.5131004 42.406406 2.0470216
-66.372993 -1.5435218 42.497253 5.0497265
-65.412163 -1.5204973 42.473427 3.0516071
-64.946388 -1.563984 42.438301 5.0517468
-64.8293 -1.5135316 42.461777 0.5748837
-64.741531 -1.5116357 42.419479 -0.0054800692
-64.655602 -1.5089947 42.452888 4.0532308
-64.163879 -1.5123744 42.489635 3.0942605
-63.311733 -1.5031936 42.452835 5.0945168
-63.110825 -1.5134677 42.466038 1.0830144
-62.956013 -1.5075407 42.447819 1.0727594
-62.87077 -1.5112232 42.450531 1.0797675
-62.256947 -1.5074457 42.448639 2.5669918
-62.039314 -1.5100594 42.403538 2.080992
-84.522491 -1.4633424 42.465797 2.0774825
-84.276321 -1.4563081 42.40575 2.0797338
-84.085342 -1.4442904 42.47179 1.0720236
-82.059616 -1.4961747 42.400227 5.0512633
-68.870201 -1.4689375 42.433887 3.1164963
-68.749794 -1.4957156 42.433468 2.0309775
-63.546364 -1.4904745 42.480675 4.0934811
-62.781834 -1.4841317 42.419186 3.0882535
-62.282993 -1.4657643 42.408276 5.0570059
-83.292084 -1.3468525 42.437607 1.5731187
-83.143387 -1.3476205 42.431366 1.0743742
-83.035851 -1.3595068 42.433544 3.0587533
-82.891907 -1.3391017 42.414322 1.085727
-82.624306 -1.356356 42.440342 4.0937672
-82.403809 -1.3123752 42.459995 2.0922346
-82.08107 -1.3514754 42.487091 5.0512567
-81.072075 -1.3425262 42.472618 5.5487347
-80.434563 -1.3517344 42.415958 3.1045051
-80.304344 -1.3164678 42.464478 0.010992648
-80.170517 -1.3125843 42.480183 1.1110206
-80.084122 -1.3591959 42.424603 2.0397294
-79.956993 -1.3366505 42.464634 2.7514884
-79.741699 -1.3209379 42.486546 3.5761197
-79.698517 -1.3570445 42.497295 2.0352402
-79.568802 -1.3522496 42.478329 2.0337493
-79.210564 -1.3264995 42.404194 5.1065121
-78.55674 -1.3468046 42.408649 3.1234844
-61.864262 -1.3215305 42.419308 6.0694938
-78.029243 -1.2652546 42.420387 5.0355058
-68.694374 -1.5176194 42.558678 1.1165094
-68.482239 -1.5466515 42.586876 0.0347348
-68.119537 -1.5461301 42.507999 1.0389943
-67.959824 -1.5460533 42.558174 1.1102601
-67.785088 -1.5340466 42.580952 4.045979
-67.602417 -1.5471582 42.549583 2.0440147
-66.855957 -1.5187116 42.591423 0.046259109
-66.314316 -1.5559241 42.54612 4.049758
-65.776901 -1.5368495 42.528824 0.051273268
-65.613152 -1.5324913 42.535587 1.0519965
-65.002769 -1.5049731 42.58123 2.0949771
-64.809494 -1.5204967 42.536098 0.056516398
-64.758835 -1.5092565 42.598213 1.0927291
-64.641563 -1.515378 42.552666 0.34699979
-64.433914 -1.5158645 42.576252 2.0567741
-63.689129 -1.5230753 42.551094 2.0897381
-63.598671 -1.5148259 42.524437 2.0600123
-63.154728 -1.5135384 42.506016 0.066977732
-62.61562 -1.5252205 42.570839 2.0637503
-62.422043 -1.5153879 42.561184 2.0750103
-63.333656 -1.4839702 42.58334 4.0917349
-63.193214 -1.4977001 42.580582 2.0839837
-62.188828 -1.4752562 42.512047 3.0825047
-83.152397 -1.366534 42.545135 1.5860043
-83.0439 -1.3553984 42.531723 0.074749917
-82.850029 -1.346885 42.545967 0.086496584
-82.714592 -1.3592606 42.514629 2.0577316
-82.602821 -1.3286201 42.51244 1.0900102
-82.461815 -1.3570743 42.550282 3.068929
-82.323044 -1.3570989 42.525055 0.056979395
-81.958054 -1.3606942 42.531574 3.0522339
-81.128754 -1.3552997 42.520977 2.0468647
-81.037491 -1.3585523 42.585167 0.044762474
-80.488121 -1.3659296 42.594952 3.0427613
-80.17421 -1.3164512 42.585308 1.1125222
-79.616119 -1.3317574 42.524242 1.1222253
-79.494904 -1.3176402 42.590141 2.1217527
-79.139496 -1.3124034 42.556408 3.1189792
-78.661949 -1.3048422 42.536491 4.0332575
-63.738533 -1.3925322 42.566059 2.0759816
-79.39537 -1.2889637 42.530582 4.1107616
-40.106426 -1.2479812 42.54319 7.0762272
-68.76548 -1.52244 42.645023 1.1150221
-68.557976 -1.5610793 42.657249 3.1080194
-68.437355 -1.509632 42.617397 5.1050091
-68.363113 -1.5446291 42.620888 0.036523007
-68.19751 -1.5469205 42.672798 0.039016407
-67.904144 -1.5484259 42.624207 1.04199
-67.06044 -1.546755 42.630314 3.0477335
-66.615829 -1.5210562 42.611866 1.0482494
-66.361588 -1.517505 42.601849 2.0494838
-65.92942 -1.5197722 42.695442 3.051765
-65.070763 -1.5229652 42.645317 3.0542521
-64.823685 -1.5226114 42.667641 0.05851084
-64.668236 -1.5200958 42.692623 1.0584881
-62.765186 -1.5150168 42.672718 2.0722432
-84.480011 -1.479616 42.682411 1.0770108
-68.937195 -1.4518679 42.600773 6.1052289
-63.240929 -1.4657328 42.600822 6.0949826
-62.441959 -1.460102 42.615009 3.5801406
-83.541374 -1.3631169 42.676846 0.075522333
-83.346954 -1.3452315 42.605419 2.0639973
-83.015427 -1.360871 42.625736 3.0570142
-82.628029 -1.3372154 42.630928 0.090237819
-82.355423 -1.3223305 42.664471 1.0942311
-81.466774 -1.3514109 42.635986 2.048497
-81.237236 -1.3556325 42.606594 1.0467743
-81.150352 -1.3563862 42.682457 1.0452358
-80.952477 -1.3527071 42.624439 1.1049916
-80.288704 -1.3631476 42.677563 3.0407605
-80.012123 -1.3086946 42.616222 2.1125009
-79.947372 -1.3407096 42.646973 2.0671108
-79.744522 -1.3360233 42.649471 1.1247267
-79.279877 -1.343768 42.689835 3.0309913
-69.540329 -1.3415024 42.650471 6.1207681
-69.28318 -1.3871759 42.695698 5.0357518
-63.844398 -1.3576429 42.62743 5.0622449
-84.71402 -1.213879 42.638851 6.0752535
-78.879723 -1.2901114 42.625538 4.1182485
-69.260719 -1.5337677 42.768337 5.0449834
-69.055817 -1.5251603 42.742764 4.0432377
-68.946411 -1.5309942 42.710098 3.1102443
-68.655838 -1.5284122 42.731056 0.014744559
-68.40258 -1.5352919 42.770752 3.0437555
-67.664032 -1.5446265 42.77179 2.5463605
-65.745354 -1.5357096 42.779537 0.055015136
-65.338806 -1.5177712 42.709175 4.0529809
-64.901886 -1.5072775 42.709641 2.0930083
-64.866676 -1.5666755 42.797779 5.0532384
-64.585602 -1.5131879 42.756538 1.0894837
-64.415817 -1.5118928 42.71283 3.0763803
-64.15274 -1.522336 42.736816 5.0542569
-63.946636 -1.5221454 42.718399 3.091253
-62.979927 -1.5273384 42.73399 2.0814979
-84.557556 -1.4383045 42.753159 2.0672431
-69.559296 -1.4771568 42.748581 3.0327494
-63.129623 -1.4902455 42.757992 4.0897393
-62.871689 -1.4821436 42.713585 4.5898619
-83.666794 -1.3673787 42.760941 0.073265515
-83.446342 -1.3696519 42.780304 3.0721276
-83.240509 -1.3607361 42.732086 1.0627289
-82.84037 -1.3738505 42.740913 3.0937424
-82.629883 -1.3533959 42.749889 2.0549922
-82.41703 -1.3319336 42.758881 0.094256535
-82.258621 -1.3540155 42.714306 0.05398507
-81.757164 -1.3572097 42.786148 3.0492265
-81.380524 -1.352765 42.73299 2.0470002
-81.044769 -1.3575976 42.759598 1.0434974
-80.941368 -1.355746 42.731998 4.0452352
-80.742462 -1.3449491 42.771996 3.5765004
-80.663521 -1.3585105 42.755596 0.038496189
-80.516411 -1.3558002 42.77121 0.036250588
-80.367188 -1.3434834 42.736282 1.0521716
-80.219742 -1.3332927 42.728657 0.57314181
-80.057899 -1.3095353 42.769459 2.1144948
-79.789742 -1.3022478 42.7313 3.1132257
-79.586769 -1.3431051 42.709602 3.0340235
-79.376244 -1.3026347 42.727467 3.1219783
-78.977989 -1.3068951 42.772404 4.0285125
-63.998707 -1.3332109 42.783871 5.080987
-79.085495 -1.2684207 42.759216 4.6162391
-78.556877 -1.2020078 42.776379 6.1117525
-69.444092 -1.2773757 42.798664 7.0412588
-69.393906 -1.51421 42.817699 2.0347748
-68.849159 -1.5221704 42.873398 1.1117669
-68.711716 -1.5606613 42.840736 5.0469837
-68.680954 -1.5259707 42.811268 0.013492248
-68.183426 -1.5466191 42.833954 2.1064827
-67.463417 -1.5297688 42.875843 5.0492392
-67.374535 -1.5480299 42.834824 2.047756
-66.522118 -1.5230615 42.813953 1.0510021
-66.283394 -1.5196433 42.80204 2.0517366
-66.195213 -1.5577089 42.897942 4.0520186
-65.642609 -1.5407572 42.862568 0.57448399
-65.16095 -1.5124216 42.859531 3.0937324
-64.800903 -1.509719 42.815708 2.0912566
-64.460045 -1.5135312 42.830208 1.0874841
-64.271095 -1.5108098 42.894623 1.084736
-81.65976 -1.4915702 42.861912 5.0492435
-69.821945 -1.4218473 42.865456 4.0295115
-69.605354 -1.4984462 42.897728 2.0322251
-64.066109 -1.4805254 42.826694 5.09448
-63.78756 -1.4064069 42.81628 3.0777335
-83.80864 -1.3747145 42.882507 0.070518441
-83.659683 -1.3674314 42.860413 3.5764928
-83.418991 -1.3535634 42.820858 2.0612586
-83.314392 -1.3729728 42.858219 5.0539846
-83.237793 -1.3785565 42.85675 2.0907614
-83.119179 -1.3653178 42.869019 0.061010819
-82.962189 -1.3600079 42.811543 3.0552716
-82.369255 -1.3519641 42.83083 1.0530109
-82.276787 -1.3589067 42.846825 4.0512657
-82.181755 -1.35449 42.878551 0.051234692
-80.769318 -1.3505826 42.841682 3.5437531
-80.284348 -1.3323501 42.890755 1.0750015
-80.110527 -1.3441818 42.848915 1.0305011
-79.78389 -1.3179996 42.861969 3.0311315
-79.599174 -1.3016858 42.88932 3.0250206
-79.357491 -1.3092111 42.866329 4.0320039
-79.18792 -1.3108021 42.854893 4.0305076
-63.551594 -1.344938 42.854992 6.0872312
-79.868141 -1.2995632 42.885162 3.1150234
-79.228683 -1.2782136 42.870483 4.1219988
-63.194813 -1.2841359 42.850567 7.0837374
-69.690659 -1.5079191 42.99802 2.116235
-69.313683 -1.5424523 42.918228 1.0360048
-69.069687 -1.5224915 42.914459 2.1104941
-68.529518 -1.5594072 42.960056 3.1052587
-68.264336 -1.5355486 42.912701 3.0454969
-68.16983 -1.5464871 42.963257 2.1049762
-67.842316 -1.5543777 42.901588 0.04500654
-67.512871 -1.5386697 42.94416 4.0489936
-67.303871 -1.5486896 42.962311 2.0492501
-66.182587 -1.5487192 42.914402 5.0517378
-65.427223 -1.5215328 42.952129 2.0572698
-64.721382 -1.5257004 42.917431 1.0615112
-64.617561 -1.5122869 42.956432 2.0885105
-64.283829 -1.531811 42.923031 0.069518842
-84.959465 -1.4910922 42.996277 1.0712566
-69.717545 -1.4952424 42.926781 2.030736
-64.20755 -1.469233 42.934971 2.0687444
-84.079254 -1.3881346 42.948757 1.0739888
-83.640739 -1.388739 42.927181 1.086231
-83.476883 -1.3849137 42.971107 2.5909913
-83.118057 -1.3652924 42.997482 0.059007283
-83.019279 -1.351667 42.931736 6.0510082
-82.889572 -1.357096 42.960548 3.0537729
-82.484184 -1.3463211 42.998642 2.0517354
-82.295883 -1.3510942 42.961792 1.0510101
-80.745461 -1.3433416 42.960369 2.1095226
-80.647179 -1.3571674 42.942238 4.0424881
-80.462112 -1.3354976 42.978786 1.5648713
-80.138428 -1.3273153 42.976395 2.0312676
-78.971901 -1.3337111 42.900402 5.0402575
-84.764374 -1.2582268 42.927635 5.073226
-79.719147 -1.2654946 42.909695 4.1147399
-79.596054 -1.2911915 42.909416 5.0395231
-79.478027 -1.2691463 42.968693 4.1244841
-79.379074 -1.2350364 42.902245 5.1137657
-79.165154 -1.2799759 42.92017 5.0367732
-64.654228 -1.6101317 43.065304 6.0497532
-69.615318 -1.5299984 43.045547 1.1162653
-69.421509 -1.5309356 43.095264 3.1080236
-69.10051 -1.5382144 43.008762 1.0389975
-69.071533 -1.5196748 43.045856 2.108989
-68.996979 -1.5384612 43.059868 1.0404978
-68.721245 -1.5316238 43.003929 4.0460138
-68.643906 -1.5402224 43.000984 2.043478
-68.156158 -1.5363747 43.045776 3.0470054
-67.718269 -1.5566341 43.054684 0.047751639
-67.537407 -1.5537407 43.014954 1.0485249
-66.856873 -1.5513871 43.036907 3.0514894
-66.647041 -1.526581 43.009075 0.053019524
-66.228859 -1.5231488 43.013649 2.0540233
-65.963135 -1.5525055 43.08226 2.0932338
-65.857101 -1.5241156 43.041241 3.0547454
-65.754532 -1.5421662 43.014084 0.57513553
-65.638641 -1.5271332 43.028538 1.0584897
-65.463303 -1.5279531 43.038849 2.0914979
-65.33036 -1.5471348 43.077259 0.08648669
-64.949783 -1.5267018 43.068634 1.5776256
-64.704437 -1.5075905 43.001747 4.0572748
-64.505585 -1.5361917 43.058369 0.073516063
-64.422127 -1.5090026 43.034317 2.0860121
-85.184563 -1.4631658 43.042683 2.0695183
-64.033325 -1.4870901 43.043293 5.0572505
-84.007034 -1.3968056 43.078373 0.080999725
-83.90815 -1.3804541 43.001827 0.068267792
-83.760414 -1.3794367 43.04121 2.589757
-83.435638 -1.3574388 43.008003 2.0590124
-83.389603 -1.3850298 43.004589 1.0897323
-83.270973 -1.349093 43.068527 4.0539975
-83.140244 -1.3687391 43.096043 5.0524893
-82.974731 -1.3743815 43.04174 2.0944872
-82.048019 -1.355473 43.065601 0.047740247
-81.78199 -1.3621483 43.043446 5.0477614
-81.503365 -1.3602244 43.059441 3.0457356
-80.842918 -1.3529665 43.051807 2.0397475
-80.714333 -1.3499811 43.072899 2.0382493
-80.557846 -1.3269799 43.041634 0.021489339
-80.479347 -1.3457879 43.087276 2.0355062
-80.295593 -1.3485761 43.034458 4.0397301
-80.191826 -1.3255451 43.00526 5.0425234
-70.762245 -1.3621439 43.094357 6.1187468
-80.69323 -1.2755045 43.010117 5.1060133
-80.017891 -1.2907165 43.042316 3.1172647
-79.925819 -1.2987552 43.021835 3.0289977
-79.050056 -1.1852593 43.029716 6.1139874
-69.527405 -1.5364306 43.144562 0.11573684
-69.383804 -1.5676804 43.104519 5.0440044
-69.292007 -1.5413039 43.110798 0.037022337
-69.197662 -1.5414584 43.143238 0.038519941
-69.082207 -1.5211819 43.108295 2.1082449
-68.52153 -1.5419734 43.109146 2.0452287
-67.660751 -1.556376 43.166035 0.049495433
-66.616264 -1.5304794 43.163609 0.055262208
-66.436157 -1.5304116 43.106148 1.0547401
-66.210556 -1.5255286 43.15572 2.0555177
-65.827858 -1.5334651 43.180958 0.061248608
-65.590523 -1.5490398 43.113873 1.0895085
-65.464157 -1.5327388 43.148483 1.573386
-65.306351 -1.520942 43.174911 4.0560217
-65.126305 -1.544528 43.133358 0.0832498
-64.932076 -1.5434377 43.15432 0.080258526
-64.784195 -1.5197648 43.153629 2.5615029
-64.611412 -1.5386089 43.101662 0.075269237
-64.432594 -1.5309137 43.171158 1.0732381
-64.315994 -1.5305469 43.11655 1.0714947
-64.161201 -1.5368028 43.189903 3.0620182
-85.285782 -1.4756384 43.10112 2.0782547
-70.127434 -1.4809299 43.164497 2.1242735
-63.977249 -1.4311404 43.130566 4.0682402
-84.255142 -1.3967991 43.168377 0.076998197
-84.047119 -1.3946267 43.154926 3.0900226
-83.624161 -1.3566453 43.119339 6.051991
-83.533119 -1.3907131 43.11013 0.088256128
-83.379074 -1.3902494 43.166111 0.090756133
-83.251717 -1.3675753 43.18676 1.0564913
-83.105438 -1.3672787 43.140514 0.05676325
-82.190193 -1.3519256 43.115173 1.0485157
-82.048813 -1.3591261 43.142559 4.0485039
-81.978928 -1.3557217 43.135803 0.046245746
-81.484062 -1.3182753 43.127735 3.105263
-81.109238 -1.348767 43.100906 0.11175436
-80.948807 -1.3490047 43.103355 1.1114842
-80.756439 -1.3344572 43.144932 1.0682474
-80.481995 -1.3292344 43.142204 2.1165028
-80.208015 -1.3146039 43.137062 4.1110101
-80.186844 -1.3110665 43.155209 3.0322335
-80.158325 -1.251667 43.155876 4.6133738
-79.95993 -1.2642378 43.195118 4.6148534
-79.663498 -1.2246478 43.169029 5.1167488
-79.310638 -1.2373962 43.145405 5.1242604
-79.235039 -1.1815786 43.187988 6.1154752
-70.181068 -1.5283595 43.270374 3.1110141
-69.926857 -1.5314409 43.298634 2.1114891
-69.808975 -1.5652701 43.282349 4.0447607
-69.751915 -1.5325521 43.275181 2.4201694
-69.294907 -1.5365741 43.218689 3.0442533
-69.051178 -1.5345216 43.251442 1.0738808
-68.727081 -1.5464693 43.220261 1.0444964
-68.554382 -1.5311928 43.260757 4.0480132
-68.482765 -1.5592345 43.283379 5.0492272
-68.381729 -1.5447552 43.267731 2.0474823
-67.981239 -1.5422268 43.275688 3.0495179
-67.456337 -1.5525761 43.223198 1.0512289
-67.386063 -1.5407685 43.220078 4.0510044
-67.211922 -1.547379 43.263733 2.0525038
-66.812538 -1.5523219 43.212334 3.0529807
-66.751411 -1.5358844 43.226368 1.0947554
-66.540848 -1.5413988 43.259594 0.092260063
-66.139862 -1.5082817 43.284473 5.0957389
-65.535141 -1.5206621 43.299973 2.0615025
-65.334175 -1.5446473 43.226284 1.0857679
-65.299133 -1.5070543 43.226067 4.0922604
-65.117111 -1.5383577 43.255367 0.068501994
-65.041252 -1.5407414 43.284599 1.0817335
-64.733574 -1.5156474 43.217514 3.088239
-64.629318 -1.5274749 43.215931 2.0642686
-64.571068 -1.5319986 43.220741 1.0752431
-84.414612 -1.400045 43.254936 0.074243411
-81.001427 -1.4712489 43.251122 5.0467305
-70.771484 -1.4668436 43.258514 3.0300019
-64.053474 -1.4930661 43.282242 3.0699904
-84.060219 -1.3720303 43.23999 2.0608959
-83.783455 -1.3948451 43.274746 3.0927701
-83.143478 -1.3450439 43.266575 4.0522432
-83.091331 -1.3700747 43.235767 0.055270024
-82.281609 -1.3458295 43.274582 2.0477428
-82.099045 -1.3511353 43.208447 1.0467678
-81.905838 -1.3589983 43.284645 4.0470095
-81.814804 -1.3518465 43.243126 0.043254565
-81.570419 -1.3651247 43.285564 5.0460062
-81.467018 -1.3179451 43.222733 3.1062624
-81.23555 -1.3594332 43.231499 3.0427632
-80.589798 -1.3208863 43.226215 1.1237583
-80.494919 -1.3025639 43.282562 2.1232278
-80.320488 -1.3059549 43.297195 4.1125026
-81.190033 -1.2966176 43.214973 4.1067352
-80.720436 -1.2718537 43.23587 5.1075139
-79.973015 -1.2839389 43.250229 4.5336275
-79.541092 -1.2361629 43.251667 5.0264969
-79.441887 -1.2359248 43.20118 5.0254974
-69.01078 -1.6072648 43.395992 6.0487528
-85.361664 -1.5029081 43.315521 1.0767416
-70.454391 -1.5395615 43.339489 1.0764809
-70.313774 -1.504138 43.33786 5.1060176
-70.275978 -1.550929 43.305862 1.0359827
-69.738281 -1.5298527 43.372341 1.1112559
-69.60141 -1.5354137 43.33284 0.11248378
-69.403366 -1.5299637 43.307629 3.1060193
-69.136787 -1.5557628 43.366539 4.045743
-68.862625 -1.5473002 43.335636 0.044268075
-68.777496 -1.5524994 43.39706 0.045768138
-68.295982 -1.5479217 43.38192 2.0489886
-66.845116 -1.5327594 43.385414 2.0940089
-66.758301 -1.5639911 43.382195 4.5518746
-66.680077 -1.5375299 43.311333 1.0932282
-66.586723 -1.5383986 43.397434 1.0914842
-66.431641 -1.5385854 43.37178 0.57412052
-66.205353 -1.5611422 43.305473 3.0932629
-66.123947 -1.5603421 43.378384 4.0550008
-66.071297 -1.5528705 43.353966 5.0537262
-65.909546 -1.5356224 43.35619 0.064239465
-65.772934 -1.5299987 43.39267 1.0637709
-65.621628 -1.5482348 43.323647 2.0884874
-65.459076 -1.5446073 43.386982 2.0864916
-65.314766 -1.5358138 43.379322 0.071995422
-65.247955 -1.5183513 43.369854 3.0612314
-65.162483 -1.5084217 43.351883 4.0907636
-64.750778 -1.5541232 43.360123 3.5608711
-64.152664 -1.5438814 43.336876 2.0712311
-71.152946 -1.4723362 43.371456 3.0252628
-70.754631 -1.4898891 43.387814 2.0299821
-64.038193 -1.4932284 43.306747 5.0587454
-84.385429 -1.397058 43.386154 2.0872512
-84.269554 -1.3996499 43.336456 1.0625008
-83.697395 -1.3660183 43.378033 3.0555015
-83.200966 -1.3703111 43.382038 1.0537558
-82.958267 -1.3653877 43.31752 5.0509963
-82.760178 -1.3523138 43.30452 6.0495219
-82.635323 -1.3483289 43.308418 3.0497661
-82.161652 -1.3467351 43.396172 2.0457485
-81.981384 -1.3502003 43.304203 1.0447255
-81.719704 -1.3211942 43.358555 2.1072345
-81.528053 -1.3458605 43.34684 0.038512431
-81.227119 -1.3389065 43.361084 0.033736836
-81.141342 -1.3463154 43.366905 0.074120022
-81.001282 -1.3330934 43.310917 0.030012002
-80.853729 -1.3449934 43.34903 2.5767601
-80.335938 -1.3104097 43.370216 5.039248
-80.334969 -1.2847488 43.344421 3.1222527
-79.884109 -1.2366956 43.319294 6.0402379
-70.621742 -1.5646312 43.438057 3.0404978
-70.586586 -1.5502024 43.448242 1.1167285
-70.474915 -1.5534625 43.456955 0.033758331
-70.336418 -1.5505443 43.48661 0.035751779
-69.930275 -1.5280451 43.422943 2.1099863
-69.741913 -1.521126 43.481361 4.1047378
-69.674927 -1.5626189 43.46841 4.046257
-68.55262 -1.5502869 43.412331 1.0477533
-68.441299 -1.5325834 43.458107 4.0495076
-67.588036 -1.5538193 43.440746 0.053495198
-67.402 -1.5552166 43.403591 1.0535237
-67.299591 -1.5444452 43.429344 4.0524993
-67.184814 -1.5431166 43.455101 3.5533743
-66.65094 -1.5324523 43.492893 0.059999384
-66.226807 -1.5419618 43.452999 0.086514883
-66.089256 -1.5620563 43.421757 3.0917659
-65.958458 -1.5380247 43.440113 0.065742649
-65.522125 -1.539463 43.47781 0.075492643
-65.334007 -1.5413833 43.419098 2.0850015
-65.186752 -1.5388343 43.448254 2.083251
-84.64724 -1.4056977 43.466053 0.069489002
-71.077003 -1.4922956 43.493694 2.025486
-84.257202 -1.398748 43.403591 2.0887494
-84.095848 -1.3977851 43.463253 2.0907438
-83.983047 -1.3526769 43.419487 5.0534754
-83.622269 -1.391979 43.406929 3.0947466
-83.150223 -1.3692701 43.480202 1.0522604
-83.010231 -1.3398578 43.41457 4.0507464
-82.520218 -1.3481956 43.449303 3.0480213
-81.739227 -1.3422627 43.444149 2.3984954
-81.453613 -1.3170414 43.413841 3.1082611
-81.34996 -1.3642355 43.448196 5.0445118
-81.172241 -1.3384902 43.465916 3.0690207
-80.918282 -1.3264813 43.41127 1.0292482
-80.722649 -1.3090237 43.452782 2.0269799
-80.667847 -1.3321807 43.473949 5.0410094
-71.347435 -1.383042 43.497272 5.12252
-81.21225 -1.2929033 43.49752 4.1092324
-80.27253 -1.2566502 43.481316 4.1227736
-79.524719 -1.2240895 43.467815 6.0337281
-79.827019 -1.1668266 43.433952 6.1195097
-71.009071 -1.542752 43.577526 4.0397563
-70.680817 -1.5559387 43.583469 1.1145246
-70.208435 -1.5293841 43.535282 3.108268
-69.940498 -1.5282748 43.562031 2.108238
-69.847931 -1.5467095 43.509457 1.0417703
-69.509819 -1.5383124 43.51841 2.0447724
-69.045631 -1.5381993 43.507034 3.0474868
-68.67524 -1.5563769 43.513264 0.047980919
-68.202477 -1.5502453 43.574993 2.05125
-67.603218 -1.5555729 43.510227 -0.0047355811
-66.749359 -1.5452094 43.541412 2.5740142
-66.525887 -1.5581419 43.563377 4.0934906
-66.474701 -1.5345474 43.550838 1.0602276
-66.241821 -1.5287023 43.511208 2.0592585
-66.019348 -1.5316162 43.519085 1.7483206
-65.866241 -1.5406895 43.549656 1.8238137
-65.714363 -1.5401306 43.517334 0.078488678
-65.644218 -1.5242243 43.527725 2.0644937
-65.362488 -1.5264018 43.553051 2.0686255
-65.257408 -1.5328941 43.511509 1.0722712
-64.887886 -1.5555608 43.564888 2.0797703
-64.57312 -1.5474503 43.500652 2.0762269
-64.207893 -1.5282729 43.589855 3.0729954
-85.856941 -1.4720221 43.592552 2.0815036
-84.914719 -1.4085619 43.592274 1.0660223
-84.898254 -1.4090446 43.573578 1.0807425
-84.585373 -1.4076847 43.539654 1.084982
-84.433571 -1.4073505 43.553158 1.087024
-84.289825 -1.4056458 43.592064 1.0890206
-71.549843 -1.4208592 43.549927 5.0319824
-70.851868 -1.4866364 43.547081 5.1077604
-84.463127 -1.3744919 43.509544 4.0930181
-84.054939 -1.3618529 43.573139 4.0547333
-83.965424 -1.3957617 43.538418 2.0924928
-83.660912 -1.3688425 43.528652 3.0540133
-83.337814 -1.3645955 43.50412 2.0529859
-81.862862 -1.3512316 43.567398 3.0733783
-81.119308 -1.3493855 43.539928 1.1180117
-80.819366 -1.2646945 43.520695 5.109509
-80.507744 -1.2901585 43.504612 3.0250072
-85.780899 -1.5048012 43.658092 1.0712541
-71.674812 -1.5132756 43.646873 3.0305171
-71.320282 -1.5346406 43.666153 1.1214808
-71.227852 -1.5317007 43.605164 1.1229801
-71.160316 -1.5449812 43.654591 3.1117659
