# .PCD v0.7 - Point Cloud Data file format
VERSION 0.7
FIELDS x y z intensity
SIZE 4 4 4 4
TYPE F F F F
COUNT 1 1 1 1
WIDTH 1360
HEIGHT 1
VIEWPOINT 0 0 0 1 0 0 0
POINTS 1360
DATA ascii
-90.431503 -1.1590226 51.021782 8
-90.395416 -1.1410919 51.054371 8
-89.217987 -1.143328 51.042503 8.833334
-87.172096 -1.10035 51.044598 10.5
-90.390976 -1.0705142 51.054756 11.5
-89.230934 -1.0633316 51.032421 9.5
-81.943733 -1.0961337 51.080376 12.333333
-81.848618 -1.0981603 51.051437 11.5
-81.747025 -1.0781496 51.045643 12.5
-90.432434 -0.94918412 51.07196 12.166667
-89.23304 -0.96211541 51.057785 10
-87.218956 -0.96630239 51.092773 12
-81.90699 -0.94789124 51.037571 13.5
-90.504913 -0.8824898 51.09866 13
-90.431374 -0.88316524 51.053028 13
-90.210831 -0.82657021 51.03252 11
-90.192696 -0.81230897 51.016636 12
-81.876205 -0.85501826 51.078171 14
-90.414696 -0.77485383 51.065086 13
-88.8629 -0.7130717 51.022987 13
-88.898827 -0.51313907 51.007786 14
-80.052773 -0.28202522 51.090202 10
-111.36294 0.13288999 51.037148 10
-111.68422 0.22108197 51.018154 10
-112.04002 1.8242618 51.01918 12
-80.297783 2.1417918 51.020634 11
-17.978703 9.2088366 51.014072 14
-15.032501 10.882628 51.050079 14
-19.85952 11.776224 51.046005 14
-20.513779 13.631943 51.035271 15
-88.115471 -1.522938 51.166763 5
-88.006882 -1.5315726 51.177055 5
-87.965591 -1.5259066 51.173328 4.75
-87.856956 -1.5498457 51.142677 4.5
-87.76075 -1.5754974 51.114967 4
-81.802483 -1.5743045 51.182629 4.3333335
-81.60038 -1.5938901 51.11515 4
-88.342094 -1.4989834 51.184113 5.3333335
-87.926552 -1.4631745 51.111469 6
-81.925804 -1.4760523 51.162853 6
-81.86235 -1.4574227 51.145363 6.5
-81.763466 -1.4655266 51.158516 6.583333
-87.950287 -1.3278124 51.146 8.5
-87.318611 -1.3493181 51.102459 8.5
-81.816727 -1.3500718 51.170643 8.5
-111.42648 -1.2010895 51.154091 8
-87.6241 -1.2014775 51.1255 10.5
-87.539429 -1.2658496 51.156227 9.625
-87.436378 -1.2392378 51.126469 9.7222223
-82.545753 -1.2603793 51.171284 10
-82.018951 -1.2147784 51.144512 11
-81.957504 -1.2472271 51.137905 9.8888893
-87.528748 -1.160351 51.181488 11.9
-82.567047 -1.1962973 51.188374 11
-82.190903 -1.1018455 51.197666 12
-82.030708 -1.1031513 51.139439 12
-90.426437 -1.0317974 51.120899 11.5
-88.09285 -1.0200126 51.106869 13
-87.627937 -1.035885 51.19804 12
-87.436836 -1.0938524 51.13332 12.5
-87.398804 -1.0948881 51.152092 12
-82.029678 -1.05857 51.143677 12
-81.309959 -1.047709 51.179806 12.5
-90.433846 -0.91873837 51.171173 13.25
-89.733017 -0.99932176 51.178738 11
-87.450813 -0.93960768 51.183784 14
-82.330658 -0.90313148 51.177921 13
-82.038345 -0.93377155 51.147022 12
-81.328743 -0.96179569 51.15976 14
-90.477325 -0.87243795 51.156273 13.5
-89.793427 -0.85066402 51.114807 11.5
-89.225357 -0.87890428 51.158165 12
-82.318108 -0.86216211 51.113956 13.5
-82.000275 -0.83073217 51.104645 13
-81.976463 -0.88884026 51.10825 13.333333
-88.633224 -0.73648924 51.194733 12.5
-111.52382 -0.32583654 51.182259 9
-79.897049 -0.019286036 51.163383 11
-79.801025 0.77562749 51.155029 15
-111.34966 0.94590473 51.192459 11
-27.482227 1.0765142 51.178253 10
-27.51292 1.1077096 51.191093 10
-89.973343 1.4395919 51.124615 11
-80.181549 2.513468 51.131012 11
-80.152878 2.6036592 51.154209 11
-80.553795 3.2508478 51.105721 12
-80.277344 3.2767205 51.169098 15
-80.306412 3.6798992 51.180489 12
-111.1312 3.8117175 51.154816 15
-14.644194 10.164061 51.170845 14
-88.13633 -1.6027216 51.292877 3
-89.911316 -1.5433694 51.295155 5
-88.30146 -1.5549272 51.291679 4.5
-82.200089 -1.5196028 51.299648 5.3333335
-89.853119 -1.4503939 51.273338 6.5
-88.985016 -1.4348989 51.213509 7
-88.704582 -1.4356247 51.250103 7
-88.670944 -1.4965951 51.266884 6
-87.657784 -1.4543114 51.284447 6.75
-81.162605 -1.4313926 51.206673 7
-89.356781 -1.3477829 51.231979 8.5
-87.762291 -1.3360856 51.267456 9
-87.678825 -1.3422232 51.26516 8.25
-87.57814 -1.3107855 51.208931 9.6000004
-87.499954 -1.3095814 51.223484 8.5
-82.306412 -1.3504349 51.272785 8.5
-82.213791 -1.3052354 51.279362 9.25
-81.623451 -1.315382 51.22393 8.5
-81.390411 -1.3735162 51.273163 8
-81.160591 -1.3704721 51.201107 8
-90.466614 -1.2564037 51.223507 8.875
-90.365768 -1.2268078 51.243652 9
-88.608688 -1.255538 51.298664 10
-88.233536 -1.2269354 51.291 11
-87.714981 -1.2556397 51.243881 9.5
-87.657478 -1.2960078 51.270618 8.666667
-87.546425 -1.2965603 51.215508 9
-82.21241 -1.2937753 51.24189 9.4333334
-82.187096 -1.2896057 51.243469 8
-82.038002 -1.273917 51.220371 9.833333
-81.806686 -1.2621742 51.243065 10
-90.254074 -1.1942215 51.245239 8
-89.876297 -1.1310962 51.205666 8.5
-88.232857 -1.1268677 51.298832 12
-87.700661 -1.1421645 51.247726 12.75
-87.673561 -1.1127516 51.278976 11
-87.540108 -1.1260537 51.21349 11
-87.491173 -1.1403731 51.206688 10.5
-82.338577 -1.1643256 51.267578 10.75
-82.223885 -1.156099 51.216385 11
-90.458229 -1.0810347 51.227589 11.5
-90.339615 -1.0900162 51.287868 11.333333
-88.668175 -1.0958706 51.203445 9
-88.010506 -1.0134845 51.29229 12
-87.722893 -1.0302833 51.242943 12.5
-87.572449 -1.0712998 51.227451 11.5
-87.427933 -1.0716993 51.206738 10
-82.584831 -1.0290924 51.279408 12
-82.353691 -1.0309572 51.230804 12.75
-82.290817 -1.0721465 51.256207 11.5
-82.078033 -1.0875404 51.224026 12.333333
-90.436501 -0.92007315 51.298882 13
-89.547417 -0.98689801 51.287476 9
-89.483704 -0.92561698 51.258083 11.5
-88.641968 -0.99113762 51.241005 10
-87.982384 -0.95298415 51.296452 13
-87.640739 -0.95153022 51.263458 12.5
-82.604469 -0.93420094 51.279236 13.5
-82.428734 -0.92628014 51.22768 13
-82.351204 -0.9819628 51.258709 11
-90.412392 -0.87481844 51.259804 13.5
-87.584572 -0.88413054 51.230827 13
-87.412018 -0.87282282 51.219318 11.666667
-82.414337 -0.88660121 51.246037 12
-87.380951 -0.70405507 51.200249 13
-27.655737 -0.64763242 51.248253 8
-77.552513 -0.53681225 51.27084 14
-79.990295 -0.28156245 51.296982 10
-110.97849 0.16444087 51.233509 10
-79.935181 0.12854755 51.223858 11
-79.964058 0.29000509 51.28661 13
-79.861839 0.35606849 51.23135 12
-80.051819 0.46510279 51.255997 13
-80.030258 0.57822835 51.253105 14
-79.905724 0.53566313 51.25692 15
-79.892258 0.8434118 51.204319 14
-81.194344 1.0652797 51.256966 14
-81.334091 1.40537 51.257248 15
-80.035736 1.4211285 51.262787 10
-90.071457 1.6556271 51.266468 14
-80.817734 4.279809 51.291756 13
-15.405236 9.9017525 51.287159 14
-16.951025 10.963046 51.272522 15
-17.845295 12.713522 51.228645 15
-88.69532 -1.5156521 51.353539 5
-88.572556 -1.5201778 51.364029 5.5
-88.251266 -1.5049082 51.317993 5
-82.186226 -1.5371383 51.332615 5.5
-89.80127 -1.4491531 51.338726 6.5
-88.940102 -1.4469435 51.325394 6.5
-88.725121 -1.4661528 51.357212 6
-88.210892 -1.4972094 51.317196 6
-82.71666 -1.4529756 51.395676 7
-82.679039 -1.4739296 51.379723 7
-82.396164 -1.4958911 51.383522 5.6666665
-81.898918 -1.4589934 51.366608 6.5
-77.711937 -1.4777546 51.396912 7
-89.642265 -1.3184236 51.387794 8
-89.484886 -1.3330797 51.399364 8.5
-82.181396 -1.3160675 51.388863 9
-81.740372 -1.3554724 51.314911 8
-90.353714 -1.249866 51.352486 9
-88.120331 -1.2019931 51.317974 10
-88.082802 -1.2711358 51.317276 9
-87.825806 -1.279063 51.327797 10.5
-83.902306 -1.2938582 51.393452 8
-83.864166 -1.2091486 51.386993 9
-82.455002 -1.2969356 51.353691 9.5
-81.957962 -1.2863486 51.305603 9.5
-77.630615 -1.2779179 51.329227 8.5
-90.370911 -1.1776042 51.381802 10
-89.540405 -1.1297464 51.354984 8.5
-88.601639 -1.1373572 51.311245 11.5
-87.926743 -1.1559393 51.33884 11
-82.555389 -1.1363764 51.391033 10.5
-82.172592 -1.1894817 51.363346 11
-77.751144 -1.1302228 51.381496 10
-77.673615 -1.1045523 51.336056 10
-90.44445 -1.0619402 51.314186 11.5
-89.834351 -1.0770414 51.353146 10
-89.530502 -1.05408 51.366055 9.5
-83.934738 -1.0808452 51.394989 9
-83.898994 -1.0443172 51.379341 11
-82.816612 -1.0449052 51.369335 12.5
-82.563332 -1.0445557 51.349197 12.833334
-82.454666 -1.0379447 51.360317 13.333333
-82.386398 -1.0799369 51.345966 12.5
-77.633949 -1.0108798 51.341343 11
-90.434174 -0.98755229 51.316471 12
-90.343964 -0.94483513 51.331818 12.5
-90.243958 -0.95719957 51.340969 12
-90.188286 -0.96005154 51.386185 9
-89.530365 -0.97558719 51.349735 10
-88.392227 -0.99933666 51.332401 14
-83.824776 -0.95656925 51.322784 10
-83.767365 -0.92892444 51.366196 11.5
-82.708244 -0.97706425 51.391487 12
-82.610329 -0.92060494 51.359665 13.666667
-82.591255 -0.94317925 51.349167 12.5
-82.269928 -0.95956427 51.350079 13.5
-82.107246 -0.97771841 51.301174 13.5
-77.707268 -0.93054986 51.342743 11.5
-90.320175 -0.86383945 51.34433 13.75
-83.874893 -0.84607553 51.384277 10.5
-77.576057 -0.89110017 51.322556 12
-88.695839 -0.77906519 51.333565 12
-83.741051 -0.74105728 51.346268 13
-77.590179 -0.7727896 51.323963 13
-87.63945 -0.65043461 51.311047 13
-89.96917 -0.59799534 51.382389 14
-87.626015 -0.50493091 51.307503 14
-79.875168 0.15784681 51.336388 12
-80.081207 0.22946489 51.360134 13
-79.915154 0.26665366 51.300476 14
-79.978859 0.52401376 51.341106 14
-81.269859 0.67367458 51.35815 13
-81.197456 0.79394531 51.381966 14
-111.14433 0.8481456 51.354378 11
-79.727669 0.96221721 51.315804 15
-111.44894 1.021139 51.353943 11
-81.221535 1.1322675 51.305382 15
-111.14459 1.4442661 51.33614 12
-110.89038 1.4907399 51.368824 12
-39.959148 1.7471898 51.326546 12
-111.36276 2.2612967 51.372139 13
-80.221565 2.2913818 51.385468 11
-111.47926 2.4057753 51.37653 13
-111.29208 2.4291968 51.341099 13
-80.219681 2.4233718 51.344654 11
-80.622093 3.2520788 51.337109 13
-80.739983 3.4104261 51.358681 14
-18.842968 8.7236176 51.346867 14
-83.923798 -1.6865089 51.470497 6
-83.541016 -1.6274073 51.468765 0.5
-82.483536 -1.6212587 51.454533 4
-82.166306 -1.6062775 51.416256 4
-89.79673 -1.5315503 51.466953 5
-88.921219 -1.5498286 51.437057 4.8000002
-88.68177 -1.597912 51.433647 4
-88.448647 -1.5740138 51.465931 4.5
-82.676636 -1.538816 51.476284 5
-82.493004 -1.5518579 51.447735 5
-82.379593 -1.5436535 51.43309 5
-82.15686 -1.5465454 51.418064 5
-89.728867 -1.4665251 51.447784 6
-89.68399 -1.4985416 51.472282 6
-88.546768 -1.4683996 51.494808 6.3333335
-88.256851 -1.4088141 51.44487 7
-82.660461 -1.4239187 51.421402 7
-82.567215 -1.4825816 51.474678 6.5
-82.023323 -1.4321485 51.496696 7
-89.751083 -1.3567661 51.463612 8
-88.253242 -1.3379705 51.438591 8
-87.82666 -1.3707687 51.406593 8
-82.765106 -1.3377845 51.450584 8.6583328
-82.627861 -1.3463043 51.462929 8.5
-82.593773 -1.3233489 51.463776 9
-82.439224 -1.3255473 51.41024 8.75
-82.200676 -1.3370116 51.472729 8.5
-77.739494 -1.3614591 51.452271 8
-90.331436 -1.2699649 51.455147 9.25
-90.178055 -1.2795727 51.440903 9
-89.507553 -1.2095213 51.409691 8
-88.250122 -1.2848819 51.482651 9.75
-87.914635 -1.2181304 51.45821 9
-83.814545 -1.2568197 51.490044 9.1000004
-83.714264 -1.2894822 51.442688 10.75
-83.114517 -1.2596805 51.479317 10.25
-82.767784 -1.2004728 51.423157 11
-90.319839 -1.1834451 51.464317 11
-90.257683 -1.1619768 51.458271 10
-83.941116 -1.1783867 51.494576 10.5
-83.815186 -1.1272578 51.442757 10.25
-83.724251 -1.1696295 51.474091 11.916666
-83.611343 -1.1388245 51.475555 10.25
-82.814949 -1.1558857 51.490475 11
-82.750038 -1.1242893 51.418339 10.5
-82.566498 -1.1560698 51.451447 11.5
-90.260071 -1.0261787 51.407967 11.5
-90.128014 -1.0565542 51.482498 9
-88.718498 -1.0912222 51.419987 9
-88.371094 -1.0130603 51.4459 13
-83.916985 -1.0384581 51.487061 12
-83.876564 -1.0561869 51.485996 12.5
-83.635246 -1.0054208 51.448639 13
-82.921219 -1.0816827 51.460869 12
-82.899536 -1.0307326 51.461452 13
-82.791458 -1.0798655 51.428349 12.5
-90.34536 -0.92884314 51.477997 13.333333
-90.101212 -0.92387271 51.435963 10
-88.702576 -0.91270018 51.427757 10.666667
-88.373329 -0.95195806 51.451313 14
-83.901604 -0.98695678 51.460861 12
-83.850693 -0.96504235 51.436256 12
-83.693626 -0.94151127 51.411167 14
-82.929176 -0.98183084 51.454147 14
-82.820526 -0.97401184 51.429005 14
-82.773087 -0.97590035 51.441246 12.5
-82.464325 -0.98366034 51.429188 14
-83.654747 -0.82408834 51.458015 13
-82.885925 -0.85076863 51.427544 14
-89.789742 -0.75342 51.472149 12.5
-83.728844 -0.76986855 51.419125 13.5
-83.687187 -0.73473531 51.483807 13
-89.942833 -0.67854416 51.425331 13
-111.4193 0.88318765 51.43454 11
-81.170837 1.0594525 51.48056 14
-80.586792 2.7025778 51.489246 13
-111.24795 2.8266232 51.45433 14
-111.39862 3.1237979 51.445587 14
-80.18734 3.4062483 51.424583 13
-15.003868 5.8935366 51.468895 13
-18.328663 6.3555665 51.461208 14
-16.957867 9.3997145 51.402672 14
-15.208203 10.61306 51.463593 15
-15.333028 10.79631 51.483871 15
-83.750839 -1.6157203 51.569588 0
-83.625549 -1.6234138 51.566013 0.5
-82.712852 -1.6282316 51.572796 3
-82.240768 -1.6125692 51.503967 4
-89.875801 -1.5282322 51.596703 5
-89.159485 -1.5420117 51.571262 4.75
-88.602135 -1.5721622 51.524803 4.5
-83.761452 -1.526678 51.577801 6.5
-83.644936 -1.5546765 51.559799 3.9333334
-83.55809 -1.5275946 51.554337 4.5
-82.72525 -1.523584 51.533649 5.5
-82.699219 -1.5807252 51.593323 4
-82.52919 -1.5642738 51.583946 4.5
-89.812012 -1.4425172 51.536774 7
-89.261414 -1.4974399 51.594368 5.6666665
-88.553024 -1.4712276 51.569355 6.25
-88.248535 -1.4191164 51.542351 7
-83.875198 -1.4540391 51.55077 5.1666665
-83.574585 -1.498726 51.590378 7
-83.255226 -1.4427371 51.532608 7
-82.970436 -1.4953583 51.598938 5.5
-82.860565 -1.4430842 51.565414 6.6666665
-82.499634 -1.4838557 51.59322 6
-78.0224 -1.484351 51.580112 7
-89.559128 -1.32499 51.508717 8.5
-89.392174 -1.3412892 51.591564 8.5
-88.925995 -1.3327816 51.525818 9
-88.877388 -1.3012707 51.560341 9.666667
-88.512779 -1.3371607 51.52528 8
-88.455444 -1.329011 51.541256 9
-88.275032 -1.3332331 51.567074 8
-83.98526 -1.3300756 51.565079 8.5
-83.865288 -1.345651 51.544327 8.5
-83.735138 -1.3487051 51.571678 8.5
-83.304176 -1.3741982 51.598827 8
-83.201675 -1.3517104 51.582165 8.5
-82.918938 -1.3685478 51.570126 8.1111107
-111.57436 -1.2039261 51.519592 8
-90.232651 -1.2500877 51.54998 8.75
-90.136185 -1.2391388 51.565388 8.5
-89.044975 -1.2733777 51.599041 10
-88.966415 -1.2650503 51.584938 10.5
-88.89006 -1.2476766 51.537659 9
-88.424721 -1.225127 51.533932 9.5
-84.129936 -1.2658283 51.576721 8.5
-84.002785 -1.2784337 51.518719 9
-83.850327 -1.2820754 51.509407 11.4
-83.648087 -1.2887603 51.506062 9
-83.559792 -1.2754796 51.571091 9.666667
-83.269714 -1.2911004 51.589344 10
-82.54628 -1.2696321 51.532696 10
-82.484398 -1.2874703 51.556305 9.5
-77.68959 -1.2371595 51.587711 9
-90.238029 -1.1241344 51.55648 11
-90.117798 -1.1231145 51.595081 9
-88.864365 -1.1903203 51.564075 11
-88.23851 -1.1297126 51.549072 11
-88.192932 -1.1514204 51.515984 12
-84.136848 -1.1555563 51.543175 10
-82.743591 -1.1805634 51.502819 11.5
-82.558746 -1.1155679 51.500072 12
-90.334427 -1.0553498 51.53508 12.25
-90.255806 -1.0557981 51.545116 11.5
-88.839096 -1.099527 51.523712 8.666667
-88.381981 -1.0767658 51.541641 11.5
-88.223915 -1.0212919 51.53511 11.5
-84.188293 -1.0159287 51.554897 11.5
-83.978027 -1.0301791 51.536705 13.5
-83.061707 -1.0959657 51.552834 11.5
-82.946037 -1.0479645 51.535404 12.666667
-90.333221 -0.96142274 51.54509 12.5
-90.284065 -0.96579444 51.579575 13.5
-88.804855 -0.94506299 51.54612 10
-88.363388 -0.93185687 51.587074 12
-88.294769 -0.96134758 51.594048 11
-84.032944 -0.90218329 51.557575 13.5
-83.000244 -0.97272366 51.571953 13.75
-90.215034 -0.85796082 51.544537 13
-88.319038 -0.82022697 51.597729 12
-88.254089 -0.80037022 51.549522 13
-84.131699 -0.84330189 51.536568 13.666666
-83.053673 -0.839037 51.523556 13.333333
-88.795998 -0.76432049 51.592487 11.5
-88.227249 -0.70187145 51.5494 14
-88.38887 -0.60035098 51.569588 14
-111.88538 -0.5179646 51.584694 9
-78.258133 -0.53267264 51.577335 14
-111.20832 0.11485803 51.515377 10
-79.406174 0.39273989 51.505302 13
-79.30864 0.497262 51.565472 14
-110.82905 0.73718357 51.513405 11
-79.32869 0.78434265 51.597111 15
-111.34966 0.93742776 51.574188 11
-81.078949 1.4608104 51.506554 15
-89.72319 1.5569743 51.585403 12
-111.59576 1.6001083 51.506786 12
-39.304909 1.8053629 51.540215 12
-39.999329 2.4526808 51.527515 13
-88.687157 2.6499295 51.516701 14
-88.583939 2.8662424 51.534119 14
-39.091419 3.2031651 51.567787 14
-14.642094 4.6870804 51.507023 12
-15.19215 7.752789 51.579041 13
-15.124666 10.333673 51.530987 15
-15.583039 10.719733 51.556065 15
-15.325829 11.071339 51.503441 15
-89.895096 -1.6258456 51.628384 3.5
-83.082954 -1.612089 51.641014 3
-82.91423 -1.6223726 51.601334 4
-89.344246 -1.5300457 51.674805 6
-89.116692 -1.5868069 51.637283 5
-84.355934 -1.570032 51.678753 4
-84.027649 -1.5215145 51.614349 5.9722219
-83.855461 -1.5286524 51.661457 6
-83.558533 -1.574098 51.613468 3.5
-83.081024 -1.5475768 51.683712 4.5
-82.903648 -1.5039052 51.649303 6
-82.751808 -1.5569072 51.663651 5.25
-89.382751 -1.4541869 51.670891 7
-84.147049 -1.4497411 51.675987 5.5
-84.041725 -1.4630265 51.647778 5.0833335
-83.90847 -1.4955208 51.665176 5.6666665
-83.563606 -1.4772176 51.699539 7
-89.078735 -1.3433605 51.603973 8.5
-84.121834 -1.3030081 51.655525 9
-84.091728 -1.3461307 51.672359 8.5
-83.831917 -1.3774793 51.668549 8.333333
-83.583778 -1.3581961 51.652866 8.2222223
-78.617958 -1.3416781 51.660511 8
-90.251434 -1.2674164 51.630821 9.5
-88.93277 -1.2834283 51.658489 10
-88.465057 -1.2640779 51.612343 10.25
-84.4636 -1.260844 51.682625 9
-84.041473 -1.2822758 51.623486 10.138889
-83.269783 -1.2936425 51.654427 9
-83.172653 -1.2352057 51.624992 10
-83.045296 -1.2537987 51.685757 10
-111.7134 -1.1619203 51.635201 8
-89.415298 -1.1894263 51.633869 8
-88.959633 -1.163204 51.669479 10
-88.456024 -1.1349225 51.625877 12
-84.494888 -1.1407204 51.689163 10
-84.35041 -1.1117067 51.635284 9
-84.066917 -1.1523751 51.612148 12.5
-83.638 -1.1152828 51.654655 10
-83.51651 -1.1597406 51.673557 11.25
-83.42337 -1.1383549 51.619564 13
-83.300316 -1.1319064 51.697906 10
-83.150223 -1.1625917 51.639671 11.75
-83.044006 -1.191443 51.670071 11
-90.210533 -1.0487926 51.698265 11.5
-84.227348 -1.0013316 51.652092 11
-83.440826 -1.0488234 51.690403 11.833334
-84.297691 -0.90482002 51.636307 12
-83.684792 -0.98011947 51.677864 11
-83.43692 -0.98155695 51.656235 13
-83.299995 -0.94900095 51.688026 11.5
-83.192474 -0.95790207 51.669319 13.5
-90.136627 -0.88102484 51.675503 13
-83.608276 -0.82806098 51.665977 12.5
-88.350342 -0.67461735 51.602448 13
-111.05952 -0.35301983 51.662632 9
-79.364128 -0.23135602 51.68652 10
-79.265388 0.048048139 51.602257 11
-111.18535 0.17126882 51.653126 10
-111.6841 0.25318694 51.615631 10
-79.937721 0.70089054 51.619904 13
-79.505165 1.0050653 51.671589 15
-89.646927 1.3169136 51.660511 11
-110.97556 1.5948732 51.669651 12
-89.601288 1.7103543 51.680519 12
-89.330574 2.1793196 51.621414 12
-89.561424 2.3641002 51.635258 13
-89.351059 2.3666642 51.634548 12
-88.637062 2.7301006 51.607513 15
-80.392578 3.421195 51.626133 14
-40.256615 3.8558574 51.658245 15
-19.633278 3.8856721 51.631813 12
-19.700001 4.980598 51.624645 13
-19.596035 5.0960793 51.606766 13
-19.666656 6.2225823 51.60659 14
-19.786186 7.2228456 51.653156 15
-19.708412 7.3719039 51.620316 15
-15.593602 7.715064 51.687443 13
-16.353287 8.0534897 51.631485 13
-20.353817 9.3971872 51.660797 14
-15.305981 10.695714 51.662407 15
-20.367649 10.995621 51.645546 15
-19.768309 11.096615 51.658024 15
-20.540537 11.264421 51.657585 15
-15.228344 11.304265 51.65432 15
-20.37044 11.682775 51.695755 15
-20.280182 11.871185 51.639381 15
-16.546997 12.672515 51.618443 15
-19.547577 14.17003 51.639511 15
-84.327354 -1.6263496 51.749615 0.5
-83.459503 -1.6222206 51.771126 3
-89.635811 -1.5392028 51.785126 5
-89.310341 -1.5453672 51.749615 6
-84.304153 -1.5486814 51.752502 5
-84.240982 -1.5615715 51.721714 1.8
-83.239357 -1.5862045 51.775234 5
-89.515335 -1.4622865 51.735672 6.5
-84.353828 -1.4796008 51.740299 5.25
-83.870804 -1.4577914 51.711784 7
-89.485954 -1.3319205 51.749607 8
-84.415466 -1.3000045 51.759388 11.222222
-84.378136 -1.3755704 51.767807 7
-84.245422 -1.3569936 51.749622 8
-84.195801 -1.3174496 51.739468 10.428572
-83.867851 -1.3836162 51.717758 8
-83.482399 -1.3345813 51.712364 9.25
-83.046677 -1.3168195 51.704288 9
-90.151634 -1.2524222 51.763584 9.833333
-89.451752 -1.2342273 51.737549 8.5
-88.837181 -1.2480543 51.742908 9
-88.702377 -1.2757324 51.740574 9
-88.682106 -1.2718921 51.728821 10.5
-84.462769 -1.2679411 51.772442 8.75
-84.387573 -1.2711644 51.760208 8.541667
-83.379845 -1.2972134 51.729542 9.25
-111.42763 -1.1839433 51.798286 8
-90.141388 -1.1437746 51.734161 10.25
-88.849556 -1.1305282 51.748413 11
-88.771652 -1.111324 51.726665 10
-84.430496 -1.1200558 51.777981 11
-84.325233 -1.1538953 51.715252 9
-84.135666 -1.1960721 51.785595 14
-90.117607 -1.0692623 51.718437 11.5
-88.822495 -1.0696387 51.73584 11
-84.454826 -1.0516213 51.742397 11.875
-84.29557 -1.0940175 51.760914 12.75
-90.096687 -0.97501451 51.762466 12
-88.845215 -0.96174645 51.799591 14
-83.664253 -0.98674297 51.701157 12
-90.206863 -0.88771915 51.749924 13.5
-90.133492 -0.81888396 51.739891 13
-84.464264 -0.8982867 51.739697 13.666667
-84.328918 -0.87170041 51.734531 13
-89.43148 -0.77637315 51.794182 13
-88.624306 -0.77658296 51.724693 13
-84.412773 -0.75829357 51.771736 12
-79.042892 -0.60768092 51.797947 13
-111.31819 -0.49027586 51.732651 9
-78.847237 -0.31462145 51.782345 15
-79.030182 0.073419213 51.784248 11
-79.401146 0.1832211 51.737183 11
-79.372986 0.39128268 51.726101 13
-80.001137 0.50786293 51.704933 12
-79.256897 0.50493789 51.708954 14
-79.41713 0.70034277 51.766975 14
-89.607643 0.82346296 51.788216 11
-80.12397 1.0299869 51.718803 14
-89.542679 1.3931952 51.790131 13
-89.600365 1.411945 51.719597 14
-89.569847 1.569667 51.720352 13
-89.583572 1.6627287 51.776634 14
-89.559242 1.7875706 51.772854 13
-89.642441 1.8725758 51.763161 14.5
-89.595177 1.8257174 51.796917 11
-89.583786 2.0992503 51.7257 14
-89.593346 2.1269031 51.782272 15
-89.582108 2.356689 51.786617 14
-40.868561 2.4561701 51.763062 13
-88.396675 2.6422067 51.745125 14
-110.59765 2.7847104 51.735031 14
-19.395657 4.0062904 51.704151 12
-19.825583 6.0847449 51.700665 14
-16.473179 7.7923613 51.784573 13
-16.593758 7.9867129 51.78043 13
-15.359491 8.1304979 51.712437 13
-16.520878 8.831953 51.717503 14
-19.29565 9.4961834 51.727051 14
-20.582855 9.6912251 51.776806 14
-20.334993 10.216823 51.77597 14
-15.209791 10.56233 51.775711 14
-20.416763 10.957075 51.762989 15
-17.061369 10.908681 51.748665 15
-15.288719 10.970066 51.772278 15
-20.147289 11.15328 51.785248 15
-20.648146 11.320136 51.785194 15
-20.460064 11.419303 51.743027 15
-96.714371 -1.6415753 51.817841 6
-89.629608 -1.640172 51.836281 2.5
-84.410477 -1.6657763 51.865295 6
-89.599579 -1.5424643 51.8148 4.5
-84.408035 -1.564574 51.840378 4
-84.311478 -1.5249076 51.868935 6
-83.449577 -1.5815169 51.819126 4
-83.282928 -1.5324516 51.804222 5
-96.716049 -1.4399946 51.837833 7
-89.627342 -1.4609219 51.868565 6
-89.563515 -1.4632655 51.880753 6
-84.520157 -1.4351555 51.835972 7
-84.418053 -1.4248205 51.893162 6
-84.364113 -1.4696991 51.821972 6.3333335
-83.438904 -1.4537328 51.815632 7
-90.195717 -1.309325 51.842258 8.5
-89.440773 -1.3318334 51.84832 8.5749998
-89.372528 -1.3579756 51.813519 8.333333
-84.44014 -1.3041272 51.85503 9.5714283
-90.144165 -1.2347822 51.85672 9.5
-89.536781 -1.2063738 51.81847 9
-89.465752 -1.258752 51.852936 9
-89.398384 -1.206368 51.89204 12
-84.46225 -1.2610521 51.822346 9
-84.128647 -1.2349641 51.802002 12.5
-83.949165 -1.2921689 51.820534 10.5
-90.092476 -1.1060129 51.82299 11
-89.564041 -1.1517065 51.813358 10
-89.413345 -1.1199768 51.847313 11.6
-84.516945 -1.170681 51.865292 9.833333
-84.416878 -1.1422081 51.844318 12
-89.360718 -1.0384147 51.803898 13.333334
-84.5028 -1.0915639 51.829948 10.5
-84.487198 -1.03812 51.883797 10
-89.385857 -0.91252154 51.864906 13
-84.50325 -0.9473471 51.833492 12
-79.042351 -0.90303272 51.817993 11
-90.092178 -0.8669551 51.802517 13
-89.400925 -0.89424753 51.804981 12
-84.436653 -0.86423409 51.813881 10.916666
-84.504402 -0.7515648 51.838238 13
-79.042381 -0.75591147 51.806889 12
-88.797516 -0.49300563 51.804741 14
-79.002365 -0.45060337 51.832279 14
-79.010773 -0.28875077 51.860126 15
-78.956131 -0.13590324 51.841763 14
-111.08936 0.16954088 51.834541 10
-79.268326 0.43215382 51.822304 12
-111.06406 0.76074529 51.869236 11
-79.295677 0.78452361 51.868065 15
-89.513115 1.2049375 51.831837 11
-110.95058 1.4099391 51.867207 12
-89.67305 1.4252599 51.847832 12
-89.606644 1.5998213 51.83136 15
-89.494751 1.5568837 51.824753 12
-89.57756 1.9044158 51.801411 12
-88.818283 2.0978484 51.819801 13
-88.763931 2.2397742 51.826054 14
-89.787842 2.6506987 51.871933 14
-111.35577 2.8474329 51.817253 14
-89.610306 2.9390907 51.809818 15
-41.055687 3.1627827 51.873657 14
-89.676804 3.7693846 51.810867 15
-111.44756 3.8689809 51.893494 15
-15.346223 5.2948494 51.858795 11
-16.400129 5.3407078 51.829472 11
-19.408449 5.5013466 51.887264 11
-15.127889 5.6991205 51.899002 11
-16.093185 5.7418895 51.897514 11
-16.77739 6.5483699 51.849876 12
-15.767828 6.9367232 51.880749 13
-16.756372 7.0094619 51.876553 13
-15.170673 7.0542698 51.857811 12
-15.176975 7.1955218 51.801392 12
-16.51689 7.7547703 51.819618 13
-15.909057 7.7915177 51.85648 13
-20.522339 7.8181815 51.86171 13
-20.253017 7.9454656 51.832169 13
-20.619068 8.0831928 51.849033 13
-20.612715 8.1319427 51.888008 13
-20.494572 8.226037 51.891544 13
-20.656389 8.8478088 51.879818 14
-15.683093 9.2693148 51.873005 14
-15.663747 9.3462496 51.801777 14
-15.464655 9.3518581 51.867619 14
-20.638599 9.6915016 51.824043 14
-15.42976 9.7487345 51.826515 14
-20.478985 9.8115234 51.812061 14
-15.776562 9.9329643 51.853443 15
-20.421406 10.059304 51.825443 14
-15.889326 10.297386 51.832207 14
-15.783196 10.205603 51.898861 15
-20.670105 10.357003 51.836674 15
-16.00211 10.393229 51.841526 15
-17.046242 10.404365 51.85022 14
-19.251528 10.938498 51.810654 14
-16.342724 10.997364 51.894314 15
-15.406705 10.960844 51.88937 15
-16.353622 11.270522 51.887398 15
-15.535784 13.823559 51.893032 15
-96.677971 -1.6499231 51.923939 6
-89.532707 -1.6461012 51.960037 1.75
-89.402092 -1.6315105 51.969669 3
-89.372864 -1.6376791 51.983906 2.5
-86.654938 -1.610737 51.963367 3
-84.415649 -1.6531409 51.974693 0
-96.724159 -1.5040722 51.934338 7
-89.601021 -1.5411094 51.953442 5
-89.510574 -1.5499246 51.922508 4
-89.405785 -1.5300019 51.960556 5
-89.367241 -1.5246291 51.931778 4.75
-89.299538 -1.5425272 51.918427 4
-86.654137 -1.5612421 51.959785 4
-96.674454 -1.4591655 51.929501 7
-89.517151 -1.4639646 51.929268 6.25
-89.477386 -1.4148979 51.924454 7
-89.358322 -1.4931201 51.92609 6.5
-84.508621 -1.494905 51.953289 5
-84.435371 -1.4405018 51.965775 6.7222219
-96.818291 -1.310032 51.946377 8
-96.722534 -1.3487167 51.919193 8
-89.636696 -1.3768499 51.973175 7
-89.495369 -1.3265667 51.989113 9
-84.465744 -1.3486335 51.92849 8.666666
-89.517418 -1.2581297 51.936455 8.666667
-84.324768 -1.2934722 51.942966 8
-111.22806 -1.1698778 51.96244 8
-96.805443 -1.1328862 51.977188 9
-90.04921 -1.1518055 51.948692 10.75
-84.508156 -1.128042 51.91391 9
-84.370804 -1.1216898 51.992657 9
-89.432419 -1.0286069 51.905109 13.5
-86.743614 -1.0331225 51.934265 13.5
-84.815826 -1.0502545 51.988949 12
-84.601761 -1.0074837 51.908112 12.5
-84.546883 -1.0852349 51.978271 11.5
-84.40313 -1.0591854 51.984142 11.5
-84.372833 -1.0796105 51.952328 10.5
-89.994583 -0.98471832 51.956802 12
-84.360474 -0.92926764 51.989468 12
-90.05835 -0.86849988 51.997242 13.5
-89.961288 -0.79154491 51.961445 13
-111.16875 -0.5534417 51.932846 9
-111.00378 0.094525933 51.925518 10
-78.990211 0.089491844 51.901089 15
-110.53607 2.0469193 51.973709 13
-88.464714 2.0652099 51.90934 13
-110.72208 2.1127472 51.965767 12
-111.52934 2.2930169 51.986942 13
-88.601074 2.257808 51.95388 15
-88.446342 2.4744973 51.900162 15
-88.993149 2.5405178 51.949249 14
-39.110386 2.5689144 51.935974 13
-88.544762 2.773056 51.914474 15
-16.246838 3.8669991 51.940819 10
-15.186722 5.4432068 51.942261 11
-15.663306 6.6043639 51.971855 12
-20.409266 6.9430242 51.999901 12
-16.171932 7.271091 51.92205 12
-20.458656 8.4493408 51.946007 13
-20.375401 8.5757122 51.902607 13
-20.685904 9.1592751 51.983562 14
-16.166866 9.1944017 51.993561 13
-15.188745 9.1208305 51.967937 13
-15.491592 9.2272987 51.960835 14
-20.553013 9.4102106 51.951397 14
-16.368946 9.4559269 51.996998 14
-15.332182 9.497036 51.947399 14
-15.470544 9.5990486 51.906483 14
-15.798127 9.6077623 51.936867 14
-15.53507 9.8571253 51.916607 14
-17.004837 10.006268 51.994766 14
-20.672274 10.276111 51.957916 15
-16.208612 10.674892 51.905449 14
-20.651941 10.768247 51.914722 15
-16.469421 10.850131 51.973373 15
-16.377169 11.48546 51.909698 15
-20.051403 12.313108 51.954899 14
-96.656891 -1.648501 52.030373 6
-89.573593 -1.627285 52.030022 3.5
-89.549133 -1.5289997 52.016781 5
-84.51062 -1.5563222 52.060539 4
-96.79837 -1.4790647 52.031898 7
-96.660164 -1.47991 52.082317 7
-86.720612 -1.4950439 52.015915 5.5
-84.540131 -1.4166152 52.037384 6.3333335
-84.42701 -1.4427961 52.018726 5.6666665
-84.31588 -1.4388804 52.0452 7
-83.164284 -1.4420849 52.054077 7
-96.777969 -1.3216146 52.017544 8
-89.53273 -1.3462374 52.099552 8
-83.323265 -1.3578167 52.0532 8.5
-83.170204 -1.3842937 52.058846 8
-89.882156 -1.2447987 52.068718 9
-86.793694 -1.2874367 52.035145 9.5
-84.441238 -1.2540034 52.042229 9.6499996
-90.012886 -1.1716846 52.035675 10
-89.970848 -1.1751494 52.09156 11
-89.886528 -1.11562 52.070797 10.5
-89.64679 -1.102926 52.021183 11
-84.458733 -1.1670828 52.077885 12
-84.396523 -1.1642535 52.096283 8
-84.28878 -1.123064 52.014141 10
-90.038284 -1.0134971 52.050129 13
-89.889366 -1.0996218 52.083488 9
-86.784637 -1.0796719 52.049232 12.333333
-84.370872 -1.0665298 52.07552 10
-90.025757 -0.96056974 52.08231 14
-89.914482 -0.99387842 52.018044 10
-86.774796 -0.98429847 52.097282 14
-84.822449 -0.97422737 52.016396 13
-84.362946 -0.89668494 52.019516 11
-84.386909 -0.76587713 52.026642 12
-111.03114 -0.41594112 52.06575 9
-79.416107 -0.028070331 52.040859 15
-111.05827 0.47670054 52.031151 10
-110.59123 1.4494849 52.029816 12
-88.639771 1.7914968 52.008625 14
-88.079094 1.7263844 52.067226 14
-88.992935 1.9606866 52.03537 13
-89.291565 2.1027446 52.018639 14
-89.104752 2.1986346 52.057777 12
-88.293587 2.2209806 52.013023 15
-40.117966 3.2353106 52.010586 14
-20.074816 3.2118735 52.072678 10
-89.662323 3.3704221 52.03812 14
-89.636047 3.5314136 52.021111 15
-20.490589 3.9260178 52.093716 10
-20.767326 4.2837682 52.076927 11
-15.728928 6.5036535 52.022617 12
-20.535923 6.663063 52.004875 12
-20.496698 6.8503509 52.051373 12
-15.829769 6.8055978 52.006119 13
-15.453088 6.9231067 52.086857 12
-20.91577 7.3908534 52.082401 13
-16.363708 7.9190755 52.041607 13
-15.603786 8.5412445 52.042702 13
-20.704758 8.7362471 52.026909 14
-15.108912 8.7247543 52.053391 13
-20.90193 8.9595528 52.049744 14
-15.304117 8.9298544 52.088844 13
-20.364935 9.3259478 52.083794 13
-16.470522 9.3976631 52.043922 14
-15.698299 9.8314915 52.073174 13
-15.718121 10.046893 52.044338 13
-17.258394 10.121346 52.004047 15
-20.533802 10.377459 52.070309 14
-20.606403 10.514416 52.018543 15
-16.486389 10.992415 52.033905 15
-16.791153 11.287645 52.089714 15
-15.742933 11.671585 52.080429 14.5
-15.737534 11.943307 52.018719 14
-20.510008 12.173047 52.032719 15
-16.632162 12.225481 52.067585 15
-15.349634 12.378985 52.095482 15
-15.24471 12.639275 52.000088 15
-20.386972 12.909574 52.034515 15
-16.077757 13.000947 52.02631 15
-84.491699 -1.6520474 52.174549 6
-96.679642 -1.5056763 52.126156 7
-84.479683 -1.5619361 52.141506 4
-84.42292 -1.4523451 52.147884 7
-96.829849 -1.3180534 52.166168 8
-96.693596 -1.3508571 52.127762 8
-89.670227 -1.3349845 52.130043 8
-111.14008 -1.2152621 52.168472 8
-89.865158 -1.2325256 52.122803 11.5
-89.762993 -1.2128713 52.190922 9
-89.633385 -1.225346 52.153118 11.555556
-84.542244 -1.2902445 52.125374 8.5
-84.436142 -1.2018816 52.196766 8
-84.362717 -1.2617333 52.150665 8.5
-96.854523 -1.1339492 52.155815 9
-89.94841 -1.1346905 52.129032 13.5
-89.68071 -1.1936126 52.19117 9
-89.948257 -1.009425 52.145515 12.333334
-89.701149 -1.095197 52.164368 10
-84.366783 -1.0838122 52.173832 10.5
-89.668282 -0.95079798 52.162979 10.5
-84.440178 -0.94223309 52.137131 12.666667
-84.309929 -0.9511655 52.17429 10
-89.929382 -0.84147483 52.141056 13.5
-89.777298 -0.84127837 52.125778 12
-84.488785 -0.88568252 52.168854 14
-84.262627 -0.77289629 52.170097 11
-110.65897 0.79443705 52.150314 11
-110.93305 1.5790939 52.107193 12
-88.212242 1.976838 52.175106 14
-87.900452 2.1903427 52.156567 15
-110.70239 2.2430465 52.120258 13
-88.264442 2.2705307 52.195461 13
-88.262871 2.4970675 52.161549 15
-16.06617 3.2451165 52.17009 10
-20.346745 3.3037808 52.123863 10
-20.802383 3.430578 52.147118 10
-20.377846 4.031981 52.115776 10
-15.520789 4.0518494 52.13356 10
-20.451742 4.1766324 52.124466 11
-20.7358 4.4171162 52.112965 11
-20.347004 4.9959316 52.13158 11
-15.742782 4.9283662 52.175575 11
-20.553658 5.5970268 52.180969 11
-20.755539 5.7030573 52.155052 12
-20.418688 5.729898 52.160431 11
-20.943872 5.8434291 52.141872 12
-20.351341 5.8338585 52.131126 11
-20.034367 5.9638052 52.130936 11
-16.411938 6.4198437 52.199337 12
-20.098648 6.5646381 52.113174 12
-20.349182 6.7020931 52.143456 12
-20.558584 7.2698789 52.155968 12
-20.149553 7.2054811 52.102814 15
-16.313421 7.219326 52.179054 13
-20.429995 7.4361587 52.146767 12
-20.364347 7.5730901 52.119881 12
-20.117891 7.5245147 52.118912 13
-20.070759 7.7411437 52.167007 12
-15.612778 8.1980124 52.133766 13
-16.720385 8.3691435 52.13868 14
-20.348896 8.4225464 52.132515 13
-15.89728 8.4931107 52.164993 14
-16.666914 8.6386919 52.168995 13
-20.613192 8.7549009 52.141369 13
-15.8628 8.7055264 52.10368 14
-20.474792 9.1752357 52.199135 13
-16.650318 9.3509541 52.132309 14
-15.585096 9.3755713 52.153374 13
-16.928177 9.4345427 52.170013 14
-20.108547 9.5387621 52.185989 13
-16.780373 9.6716948 52.16301 14
-20.487341 10.922525 52.169441 14
-15.953384 12.192426 52.143593 15
-20.502865 12.70289 52.164124 15
-84.527275 -1.4554397 52.24638 5.9888892
-84.449654 -1.4287609 52.215126 7
-84.519066 -1.334393 52.246834 8
-84.364281 -1.3326706 52.215302 8.5
-89.661484 -1.2123222 52.203499 10
-84.702232 -1.2153618 52.288689 11
-84.586136 -1.2651378 52.243896 9
-84.474754 -1.2957287 52.23177 9.5
-111.21815 -1.1915305 52.2556 8
-84.495018 -1.122087 52.228695 12.8
-89.713402 -1.0381809 52.252949 10
-84.606514 -1.0499971 52.226452 12
-84.527458 -1.0530316 52.29211 10
-89.897034 -0.95395547 52.214066 14
-89.712303 -0.97499835 52.230736 13
-89.650131 -0.8959254 52.224682 12.5
-89.8442 -0.71692461 52.255192 13.5
-110.97023 -0.56551939 52.27644 9
-89.746674 -0.56244832 52.273941 13
-89.724716 -0.47189647 52.232162 14
-89.641968 -0.42461771 52.253139 14
-110.93182 0.15550649 52.235867 10
-110.97183 0.74730062 52.278137 11
-111.09734 0.89513159 52.284966 11
-110.55766 1.3486972 52.258789 12
-87.932556 1.8551921 52.204853 13
-89.199455 1.9060156 52.208572 12
-19.691721 2.2648184 52.218292 9
-110.39542 2.731885 52.207363 14
-20.265196 3.368948 52.209202 10
-19.563189 4.0903373 52.282928 10
-19.924204 5.0982714 52.219196 13
-16.306721 5.6480546 52.298317 11
-16.514223 6.3173914 52.227734 12
-16.76893 6.7145038 52.292603 12
-16.4827 6.71662 52.289928 12
-20.779259 6.876029 52.215298 12
-20.952208 7.2545738 52.233917 13
-15.774901 8.3760929 52.262447 13
-20.646805 8.9949808 52.291504 13
-16.77142 9.8989582 52.24688 15
-20.222904 10.169909 52.225933 14
-21.043823 10.644855 52.287231 14
-20.631092 10.699285 52.208923 14
-15.336358 10.940472 52.288498 14
-20.717468 12.003384 52.226238 15
-20.839605 12.465336 52.24102 15
-20.659761 12.455575 52.229652 15
-16.355732 12.510425 52.225273 15
-16.322136 13.688514 52.227348 15
-84.611259 -1.6474781 52.355164 6
-84.462379 -1.5584991 52.392979 3.5
-92.576164 -1.4152362 52.392086 7
-84.748009 -1.4261901 52.383583 7
-84.852211 -1.3572625 52.391953 8.1000004
-84.707901 -1.3243202 52.312477 9.5
-84.660789 -1.3814538 52.358646 7
-84.56337 -1.3053076 52.324879 8
-92.587166 -1.2689782 52.393703 9.833333
-84.741776 -1.2995046 52.383224 8.5
-84.68486 -1.2712317 52.349442 9
-84.497498 -1.2946949 52.303619 9.5
-111.10281 -1.1745164 52.312534 8
-84.692413 -1.1791992 52.384346 9.5
-92.568085 -1.052487 52.397915 13
-84.78727 -1.0924679 52.373894 13.2
-84.674263 -1.0759468 52.368515 12
-84.524811 -1.0581938 52.350025 11
-84.501526 -0.96037698 52.352543 12
-84.551239 -0.88842577 52.348148 11.333333
-84.507393 -0.76867127 52.357189 13
-110.90649 -0.368469 52.332909 9
-110.96323 0.14406884 52.380417 10
-110.89906 0.26717341 52.357952 10
-111.30905 1.5376636 52.383785 12
-110.75165 1.6391381 52.395836 12
-88.071434 2.4740825 52.361938 14
-110.40182 2.8785262 52.377846 14
-20.256262 3.8578839 52.371712 12
-16.608105 3.8022523 52.361202 10
-19.948486 6.1385665 52.338303 14
-16.654598 6.6379738 52.383106 12
-20.371971 7.3203225 52.347897 15
-15.318202 7.470685 52.357273 12
-20.370213 8.6429787 52.300072 14
-16.673899 8.6843243 52.398022 13
-16.475027 8.8803186 52.370712 13
-16.645706 9.4791775 52.311611 13
-21.006407 10.048263 52.310703 14
-15.025937 11.161506 52.302925 15
-21.016167 11.804947 52.338875 15
-84.591881 -1.6177434 52.426079 2
-84.604973 -1.503613 52.414795 4.5999999
-92.570847 -1.4850259 52.483097 5.5999999
-84.727379 -1.4924902 52.458382 5
-84.694756 -1.4015971 52.435028 7
-92.627914 -1.3398587 52.497162 8.5
-84.93689 -1.3058925 52.456154 9.125
-84.850822 -1.3332719 52.499886 8.75
-84.970558 -1.2394664 52.485092 10
-84.886642 -1.2153609 52.423717 10.333333
-84.980698 -1.1026642 52.445812 12.5
-84.871872 -1.1048219 52.473763 11
-85.021553 -1.0465542 52.471291 13.25
-84.85817 -1.0604918 52.45507 13.5
-84.959167 -0.83685845 52.465965 13.5
-111.36745 -0.49269593 52.401348 9
-111.22433 0.48410511 52.481609 10
-110.42934 1.9801402 52.478756 13
-110.64869 2.0957999 52.408321 12
22.468634 3.0973089 52.485538 10
-87.753204 3.5493877 52.448593 15
-3.8700716 3.6596062 52.476418 11
-89.221489 3.8011844 52.443474 15
-111.1055 4.7686739 52.487755 15
-16.888817 4.9381876 52.498253 11
-16.823896 5.0052738 52.424118 11
-16.998545 5.6128731 52.450466 12
-16.975174 6.9572296 52.428108 13
-16.668177 7.0455184 52.424118 12
-16.330925 7.5423541 52.449116 12
-16.868448 8.346427 52.457676 13
-20.132534 10.156521 52.434044 15
-17.044035 11.868925 52.477486 15
-85.295929 -1.6218458 52.595516 1
-84.924385 -1.6116793 52.546066 2
-84.856262 -1.6189021 52.561073 2
-92.565094 -1.5622382 52.570915 4
-84.973022 -1.5340344 52.544151 5.4000001
-85.10762 -1.4964855 52.593071 6.1999998
-84.875557 -1.4035287 52.50042 7
-84.659279 -1.4493527 52.543308 6
-85.23745 -1.3346145 52.500404 9
-85.172134 -1.3032033 52.568035 9.25
-84.933701 -1.3577814 52.513336 7.5
-85.346054 -1.2335141 52.596657 9
-85.261475 -1.2567358 52.576683 9.4750004
-85.014854 -1.2402669 52.595097 10
-111.20721 -1.1102877 52.593071 8
-85.487442 -1.1962736 52.599529 11
-85.331818 -1.1283078 52.568176 11
-85.217934 -1.1585829 52.593071 10.5
-85.19178 -1.1152956 52.539795 12
-85.473854 -1.0003837 52.586048 13
-85.087639 -1.0380436 52.579292 13.5
-85.341324 -0.94147092 52.588985 10
-85.114395 -0.91420925 52.542988 13
-85.34639 -0.73718721 52.564804 13.75
-111.26318 -0.50854117 52.504627 9
22.642813 0.37659025 52.584801 8
-111.19356 0.83664477 52.563301 11
-87.746536 1.1439621 52.536461 10
-110.48515 1.4363796 52.598083 12
-89.093201 1.449363 52.585884 13
-88.793053 1.5588366 52.523964 12
-111.21133 1.6120582 52.599499 12
-87.316132 3.0188992 52.527813 13
-17.007542 5.5008087 52.53775 12
-17.036964 8.5178137 52.546051 13
-22.026905 10.977674 52.597206 15
-16.399231 11.076646 52.50766 14
-16.780689 12.08931 52.550358 15
-85.490662 -1.6091707 52.690285 3.5
-85.250778 -1.636014 52.600662 4
-85.325066 -1.5183985 52.641857 6
-85.123985 -1.5055776 52.673157 4.3333335
-84.974739 -1.5252516 52.626457 4.25
-85.637199 -1.4604263 52.633125 7
-85.472588 -1.4400661 52.673252 7
-85.147308 -1.4847178 52.644501 5
-85.462616 -1.3158575 52.672569 8.875
-85.328018 -1.3431361 52.677895 8.5
-85.264122 -1.3228276 52.606747 8
-85.448959 -1.2337333 52.634823 8
-85.183174 -1.2541244 52.603821 10
-85.581032 -1.1017295 52.698273 14
-85.4356 -1.1690656 52.654854 10.693334
-85.576965 -1.0198842 52.690605 13
-85.4375 -1.0516782 52.65274 9.5
-85.357521 -1.0905377 52.630875 11.055556
-85.534592 -0.97640181 52.67765 9
-85.425697 -0.9859252 52.641918 13
-85.352264 -0.95963746 52.627747 12.75
-110.9998 -0.4195416 52.624516 9
-111.26324 0.1098156 52.647099 10
-87.551208 1.8797246 52.68153 13
-110.68771 2.1420798 52.622913 13
-87.496719 2.2316539 52.628361 15
-87.378326 2.4357858 52.687653 14
-31.705019 2.5080986 52.663483 12
-110.71822 2.7986336 52.672504 14
-110.51275 2.7880731 52.658195 14
-87.795357 2.9367993 52.683502 14
-110.24306 3.3672605 52.611137 15
-89.188423 3.3869846 52.620266 14
-4.424264 3.8618772 52.617401 11
-20.359476 4.9280357 52.620216 11
-20.869743 6.107986 52.652016 14
-20.35388 6.610743 52.6166 12
-20.360006 8.3147707 52.636471 13
-17.745316 11.327583 52.664642 15
-85.510361 -1.6329081 52.701851 6
-85.455025 -1.5435095 52.76939 3
-85.568298 -1.4395422 52.735107 6.5
-85.471352 -1.4350709 52.72287 7
-85.328903 -1.4821827 52.794464 5.5999999
-85.708649 -1.3548266 52.70171 8.5
-85.660934 -1.304081 52.731937 9.333333
-85.595833 -1.3000531 52.776577 9.5
-85.321991 -1.3679311 52.779102 8
-111.25944 -1.219851 52.708729 8
-85.855087 -1.2351977 52.783386 10
-85.78344 -1.2377672 52.795635 10
-85.557068 -1.2795534 52.76445 9.5
-85.450104 -1.2608154 52.757828 9.5
-85.755432 -1.1257043 52.780636 11.5
-85.645912 -1.1322873 52.751945 9
-85.544136 -1.1722116 52.755711 11.166667
-85.458626 -1.1504869 52.772884 10
-85.797134 -1.0103624 52.742393 12
-85.571495 -1.0672786 52.775787 12.166667
-85.575142 -0.95734 52.725002 14
-85.6185 -0.81153566 52.753304 13
-111.00142 -0.51064217 52.723091 9
22.394478 0.40002805 52.755962 8
-110.88535 0.86315489 52.790913 11
-31.617483 0.88023549 52.709259 10
-109.94318 1.1800231 52.760815 11
-109.93735 1.2548923 52.781898 12
-87.522354 1.7800438 52.751522 14
-87.59787 2.4261742 52.744186 12
-87.421707 2.5684128 52.765984 12
-110.34062 2.6213791 52.755726 14
-110.2854 2.8459377 52.741013 14
-110.12329 2.9214997 52.723137 14
22.164471 2.9405184 52.754074 10
22.208755 3.1473622 52.777878 10
-109.88319 3.3165846 52.752502 15
-111.28653 3.9223528 52.791351 15
-17.727247 8.7695827 52.74284 14
-22.164856 9.4177332 52.763279 14
-85.581551 -1.6076717 52.827335 1.25
-85.448303 -1.6135207 52.842514 3
-85.69809 -1.5224533 52.854126 3.3333333
-85.594017 -1.5023745 52.846149 5.6666665
-85.476814 -1.5179671 52.871544 5
-85.581032 -1.4637002 52.819073 5
-86.019478 -1.3482562 52.870411 8.5
-85.068192 -1.3389575 52.899971 8.5
-89.489883 -1.2520024 52.897198 11
-85.644325 -1.2144732 52.830757 9
-85.585999 -1.2982079 52.847656 9.1999998
-111.16966 -1.1992801 52.858162 8
-89.497147 -1.1308124 52.897999 12.5
-86.003853 -1.1396568 52.866943 11
-86.094147 -1.0451266 52.878754 12
-85.874992 -1.0341734 52.880363 12
-85.76046 -1.0863148 52.899574 12.666667
-85.70002 -0.97755432 52.827381 11
-86.173904 -0.85519004 52.887165 13
-85.957214 -0.88708311 52.851578 13
-86.074486 -0.78795409 52.842094 14
-85.77417 -0.74782187 52.825031 13
-89.939865 1.0504986 52.851952 11
-110.0526 1.3444012 52.888237 12
-89.788193 1.7532746 52.883224 13
-109.78664 1.9435459 52.825195 13
-110.40557 2.2855687 52.835415 13
-110.0527 2.8210139 52.83849 13
-109.85336 3.1636097 52.830105 15
-109.93531 3.624558 52.834007 14
-18.67639 11.532738 52.851303 15
-19.80924 12.505616 52.87117 15
-89.463387 -1.6272738 52.990372 3
-85.899193 -1.6050568 52.993561 1.5
-85.699005 -1.6659105 52.919033 0
-89.457703 -1.5382311 52.956051 4.8333335
-86.118263 -1.4924264 52.998783 6
-85.963585 -1.4243096 52.967323 7
-85.752647 -1.4477625 52.907696 7
-89.487259 -1.3327273 52.977169 9.2857141
-86.023643 -1.3285578 52.956387 8.75
-85.972725 -1.3320239 52.967926 9
-86.21846 -1.209237 52.938828 10
-86.021713 -1.2280729 52.935219 8.75
-85.970528 -1.2954326 52.969955 9.333333
-85.840179 -1.2805113 52.906578 9
-85.769287 -1.2132716 52.939552 11
-111.15939 -1.1797264 52.922817 8
-86.03334 -1.1590745 52.95974 12.25
-85.910187 -1.1194348 52.905636 10
-86.046959 -1.0382439 52.966934 11.055556
-85.988762 -1.0744874 52.919552 13.5
-85.853065 -1.0622036 52.960915 12.5
-86.105377 -0.92742288 52.969482 13
-86.005081 -0.96125293 52.964859 14
-85.849854 -0.97474992 52.96312 14
-86.022629 -0.80060339 52.953945 13
-85.951622 -0.89939916 52.911392 12
-34.401775 -0.027941823 52.979095 9
-111.25532 0.19858718 52.972851 10
-111.38035 0.85422313 52.989029 11
-109.90038 0.85264647 52.92506 11
-32.002701 0.86912292 52.918751 10
-110.55385 1.6179637 52.984951 12
-32.160896 1.6797726 52.993065 11
-87.339531 1.9010428 52.985756 13
-110.37997 2.0894036 52.935043 13
-109.79987 2.061054 52.925968 13
-109.92056 2.6635885 52.983238 14
-85.759789 -1.6474284 53.016975 3
-86.097878 -1.5075834 53.043442 6.5
-85.84671 -1.5351628 53.041451 3.5
-86.166206 -1.4464879 53.05864 6.5
-86.059067 -1.4312522 53.023628 6
-86.153618 -1.3239231 53.068352 9
-86.09864 -1.3500367 53.047508 8
-111.10358 -1.224841 53.054886 8
-87.726418 -1.2276361 53.075928 10
-86.335052 -1.2243987 53.073437 8
-86.195015 -1.2889527 53.020424 9.6000004
-85.901871 -1.2857221 53.001381 9.5
-89.453011 -1.1124659 53.030476 13
-86.232018 -1.1017015 53.068707 10.5
-86.190834 -1.1077245 53.024921 13.5
-87.389977 -1.0496647 53.063217 11
-87.416885 -0.95619607 53.057793 12
-86.267044 -0.92085123 53.075226 13
-86.662376 -0.74958682 53.087757 14
-111.2856 -0.5132497 53.047943 9
-111.16116 -0.56329757 53.060585 9
-110.9245 -0.3762871 53.082291 9
21.793962 -0.044303209 53.024239 8
-111.13627 0.097818017 53.055603 10
22.44099 1.4025031 53.078194 9
-89.590042 1.7564555 53.077019 13
-87.233902 2.2737539 53.057281 11
-87.179184 2.2830229 53.007294 12
-110.31406 2.7068305 53.010704 14
-86.632912 2.7217474 53.088333 15
-110.1539 3.5100827 53.041866 15
-89.499115 -1.6416945 53.153664 3
-89.545677 -1.5253305 53.188835 5.4285712
-87.511299 -1.4158782 53.123848 7
-87.436584 -1.4299659 53.197784 6.5
-86.339218 -1.4737046 53.169907 5.5666666
-89.619415 -1.3406678 53.158852 9
-87.536682 -1.3718506 53.186077 9
-87.446014 -1.3343954 53.11232 8.5
-86.334724 -1.3306763 53.151482 8.75
-85.846069 -1.369415 53.172871 8
-87.697639 -1.2588055 53.147114 9.5
-87.562561 -1.237311 53.177216 9.9333334
-87.443451 -1.2592062 53.132359 8.333333
-86.687332 -1.2814685 53.143963 9
-86.45369 -1.2455795 53.176231 10
-87.701538 -1.15773 53.182648 11
-87.540199 -1.1625171 53.166153 10
-87.492531 -1.1000687 53.145309 12
-87.389847 -1.1951613 53.166481 14
-86.680702 -1.1685995 53.152843 9.5
-86.550613 -1.1698723 53.182823 13
-86.355087 -1.1147053 53.131744 13.25
-86.22229 -1.1750872 53.103642 11
-86.074966 -1.1695806 53.104046 11.5
-87.537704 -1.0212996 53.150314 9.5
-87.454155 -1.0593776 53.142967 11
-87.324585 -1.0917357 53.155582 9
-86.475166 -1.0083197 53.165237 13
-86.337837 -1.0264492 53.144093 12
-87.470474 -0.96668243 53.145279 12
-87.377777 -0.91372436 53.124195 10
-86.692032 -0.90594995 53.116924 12.5
-86.518051 -0.95780098 53.165558 14
-86.345741 -0.9797824 53.12912 13
-87.352448 -0.72829211 53.120529 11
-34.308922 -0.79632998 53.13298 8
-111.27728 -0.48220634 53.1446 9
-110.93542 0.22896504 53.14344 10
-110.09687 0.64501166 53.188824 11
-109.95483 0.71786463 53.147614 11
-109.90788 1.2512803 53.114159 12
-110.20548 2.022625 53.132862 12
-86.641357 2.1996932 53.199017 14
-86.483093 2.4619374 53.189503 15
-110.12846 2.5781009 53.190845 14
-109.78008 3.148772 53.156048 15
-110.07675 3.3218617 53.177032 15
-109.75486 3.6521828 53.151638 15
-95.661804 -1.6443863 53.295174 6
-87.492859 -1.6206815 53.281342 5
-86.121666 -1.6396276 53.262207 2.75
-86.122543 -1.5763173 53.248466 4
-87.541763 -1.4353589 53.247227 7
-87.435936 -1.4635494 53.256062 6.625
-86.512421 -1.4998525 53.279625 5
-86.495544 -1.4303248 53.281563 7
-86.205002 -1.4945556 53.25235 6
-89.559036 -1.3168143 53.212173 9.5
